VERSION 0.7
FIELDS x y z
SIZE 4 4 4
TYPE F F F
WIDTH 833
HEIGHT 1
POINTS 833
DATA ascii
8.220157623291016 2.6154847145080566 -1.5250725746154785
8.187004089355469 2.5766408443450928 -1.5174124240875244
8.13864517211914 2.5333473682403564 -1.5069667100906372
8.10515308380127 2.49501895904541 -1.499306559562683
8.067732810974121 2.455779790878296 -1.4909499883651733
8.026374816894531 2.4156644344329834 -1.4818971157073975
7.988620281219482 2.376957654953003 -1.4735405445098877
7.95070219039917 2.3385112285614014 -1.465183973312378
7.9164042472839355 2.3014259338378906 -1.4575237035751343
7.8781657218933105 2.2634925842285156 -1.449167251586914
7.839768409729004 2.2258217334747314 -1.4408106803894043
7.805003643035889 2.189479112625122 -1.4331504106521606
7.766294002532959 2.1523241996765137 -1.4247938394546509
7.742624282836914 2.1195952892303467 -1.4192228317260742
7.699814319610596 2.081895112991333 -1.4101699590682983
7.672066688537598 2.0485494136810303 -1.403902530670166
7.6441850662231445 2.015399932861328 -1.3976351022720337
7.6161723136901855 1.9824446439743042 -1.3913676738739014
7.591842174530029 1.9506665468215942 -1.3857965469360352
7.578842639923096 1.9219648838043213 -1.382314682006836
7.565738201141357 1.8933643102645874 -1.3788328170776367
7.571649074554443 1.8695870637893677 -1.3788328170776367
7.573657989501953 1.844858169555664 -1.378136396408081
7.583246231079102 1.8219765424728394 -1.3788328170776367
7.581267356872559 1.7963274717330933 -1.3774399757385254
7.583037376403809 1.7716048955917358 -1.3767436742782593
7.5847272872924805 1.7468898296356201 -1.3760472536087036
7.5786542892456055 1.7204368114471436 -1.3739581108093262
7.664743900299072 1.714678168296814 -1.3885821104049683
7.593161106109619 1.673633098602295 -1.3746545314788818
7.6445722579956055 1.6597996950149536 -1.3830111026763916
7.761452674865723 1.6596611738204956 -1.4032061100006104
7.739646911621094 1.6295883655548096 -1.3983314037322998
10.074317932128906 2.088124990463257 -1.818945050239563
7.769030570983887 1.5848636627197266 -1.4018133878707886
10.094962120056152 2.0263359546661377 -1.8203378915786743
10.085822105407715 1.9915590286254883 -1.8175523281097412
10.11136245727539 1.9636179208755493 -1.8210341930389404
10.102005004882812 1.928888201713562 -1.8182487487792969
10.12350082397461 1.9000481367111206 -1.8210341930389404
10.110051155090332 1.8646633625030518 -1.8175523281097412
10.111983299255371 1.832189917564392 -1.8168559074401855
10.109933853149414 1.7990325689315796 -1.8154631853103638
10.123295783996582 1.7686189413070679 -1.8168559074401855
10.121038436889648 1.7354750633239746 -1.8154631853103638
10.153630256652832 1.7082455158233643 -1.8203378915786743
10.12785530090332 1.6712076663970947 -1.814766764640808
10.136944770812988 1.6400119066238403 -1.8154631853103638
10.138155937194824 1.6075401306152344 -1.814766764640808
10.13148021697998 1.5738680362701416 -1.8126776218414307
10.151951789855957 1.5444016456604004 -1.8154631853103638
10.148961067199707 1.5113399028778076 -1.814070463180542
10.165351867675781 1.481153130531311 -1.8161596059799194
10.166055679321289 1.4486544132232666 -1.8154631853103638
10.16275405883789 1.4156222343444824 -1.814070463180542
10.171053886413574 1.3842198848724365 -1.814766764640808
10.1792573928833 1.3527783155441284 -1.8154631853103638
10.171737670898438 1.3192733526229858 -1.8133740425109863
10.179739952087402 1.2878053188323975 -1.814070463180542
10.175917625427246 1.2548538446426392 -1.8126776218414307
10.187630653381348 1.223819375038147 -1.814070463180542
10.18751335144043 1.191349983215332 -1.8133740425109863
10.191205978393555 1.1593397855758667 -1.8133740425109863
10.202627182006836 1.1281827688217163 -1.814766764640808
10.202204704284668 1.0957037210464478 -1.814070463180542
10.221267700195312 1.0652811527252197 -1.8168559074401855
10.224563598632812 1.033164381980896 -1.8168559074401855
10.208158493041992 0.99912029504776 -1.8133740425109863
10.215167999267578 0.9674163460731506 -1.814070463180542
10.222079277038574 0.9356794953346252 -1.814766764640808
10.248510360717773 0.9056411385536194 -1.818945050239563
10.231681823730469 0.8717676997184753 -1.8154631853103638
10.242220878601074 0.8402644395828247 -1.8168559074401855
10.268370628356934 0.8099414110183716 -1.8210341930389404
10.270864486694336 0.7776791453361511 -1.8210341930389404
10.292900085449219 0.7468332052230835 -1.8245161771774292
10.306983947753906 0.7153110504150391 -1.826605200767517
10.364204406738281 0.6865730285644531 -1.8363546133041382
10.342723846435547 0.652521014213562 -1.8321763277053833
10.36044979095459 0.6209685802459717 -1.8349617719650269
10.35055160522461 0.5877468585968018 -1.8328726291656494
10.395612716674805 0.5575467348098755 -1.840532898902893
10.401247024536133 0.5250846147537231 -1.8412292003631592
10.41464900970459 0.4929637908935547 -1.8433183431625366
10.427950859069824 0.46076515316963196 -1.845407485961914
10.452960968017578 0.42897114157676697 -1.849585771560669
10.44638442993164 0.39583253860473633 -1.8481930494308472
10.459386825561523 0.3634221851825714 -1.8502821922302246
10.468350410461426 0.330809623003006 -1.8516749143600464
10.441777229309082 0.29713717103004456 -1.8468003273010254
10.474160194396973 0.26512882113456726 -1.852371335029602
10.46706485748291 0.2320481538772583 -1.8509786128997803
10.463804244995117 0.19908836483955383 -1.8502821922302246
10.468316078186035 0.1662764698266983 -1.8509786128997803
10.460909843444824 0.1332889050245285 -1.849585771560669
10.480971336364746 0.10061291605234146 -1.8530677556991577
10.4694185256958 0.06760995090007782 -1.8509786128997803
10.453824043273926 0.034666262567043304 -1.8481930494308472
10.457820892333984 0.0018246668623760343 -1.8488894701004028
10.465652465820312 -0.031052138656377792 -1.8502821922302246
10.453685760498047 -0.06385907530784607 -1.8481930494308472
10.437679290771484 -0.09655345231294632 -1.845407485961914
10.417631149291992 -0.12910032272338867 -1.8419256210327148
10.421113014221191 -0.1618880331516266 -1.8426220417022705
10.404800415039062 -0.19433237612247467 -1.8398364782333374
10.41201400756836 -0.22719135880470276 -1.8412292003631592
10.399435997009277 -0.25960487127304077 -1.8391400575637817
10.382819175720215 -0.2918321490287781 -1.8363546133041382
10.381851196289062 -0.32444852590560913 -1.8363546133041382
10.37684440612793 -0.3569275140762329 -1.8356581926345825
10.367798805236816 -0.38923048973083496 -1.8342654705047607
10.362589836120605 -0.4216390550136566 -1.833569049835205
10.353344917297363 -0.4538474977016449 -1.8321763277053833
10.343997955322266 -0.4860007166862488 -1.830783486366272
10.338486671447754 -0.5182981491088867 -1.8300871849060059
10.336807250976562 -0.550775408744812 -1.8300871849060059
10.335025787353516 -0.5832459330558777 -1.8300871849060059
10.325277328491211 -0.6152433753013611 -1.8286943435668945
10.327226638793945 -0.64792400598526 -1.8293907642364502
10.317278861999512 -0.679847240447998 -1.8279980421066284
10.330809593200684 -0.7133423686027527 -1.830783486366272
10.332446098327637 -0.7460768818855286 -1.8314799070358276
10.333980560302734 -0.7788301110267639 -1.8321763277053833
10.33148193359375 -0.8112906217575073 -1.8321763277053833
10.3367338180542 -0.8443856835365295 -1.833569049835205
10.361504554748535 -0.8791857957839966 -1.8384437561035156
10.37830924987793 -0.9134602546691895 -1.8419256210327148
10.355774879455566 -0.9442722797393799 -1.8384437561035156
10.348835945129395 -0.9764304757118225 -1.83774733543396
10.337876319885254 -1.0081732273101807 -1.8363546133041382
10.326820373535156 -1.039855718612671 -1.8349617719650269
10.311749458312988 -1.0710728168487549 -1.8328726291656494
10.308333396911621 -1.1034632921218872 -1.8328726291656494
10.304816246032715 -1.1358416080474854 -1.8328726291656494
10.3090238571167 -1.169097661972046 -1.8342654705047607
10.297475814819336 -1.2005656957626343 -1.8328726291656494
10.278009414672852 -1.231036901473999 -1.8300871849060059
10.281909942626953 -1.264281988143921 -1.8314799070358276
10.309150695800781 -1.3005205392837524 -1.8370509147644043
10.305013656616211 -1.3329017162322998 -1.8370509147644043
10.316394805908203 -1.3673386573791504 -1.8398364782333374
10.339370727539062 -1.4034509658813477 -1.844711184501648
10.33491039276123 -1.4359253644943237 -1.844711184501648
10.334247589111328 -1.4689409732818604 -1.845407485961914
10.341276168823242 -1.5030999183654785 -1.8474966287612915
10.3442964553833 -1.5367375612258911 -1.8488894701004028
10.327733039855957 -1.5674548149108887 -1.8468003273010254
10.33832836151123 -1.6023049354553223 -1.849585771560669
10.333243370056152 -1.6347763538360596 -1.849585771560669
10.320279121398926 -1.6659759283065796 -1.8481930494308472
10.311107635498047 -1.6977492570877075 -1.8474966287612915
10.317377090454102 -1.7320910692214966 -1.849585771560669
10.304120063781738 -1.7631659507751465 -1.8481930494308472
10.314050674438477 -1.7982351779937744 -1.8509786128997803
10.288960456848145 -1.8271857500076294 -1.8474966287612915
10.298672676086426 -1.8623032569885254 -1.8502821922302246
10.288898468017578 -1.8939356803894043 -1.849585771560669
10.27902603149414 -1.9255238771438599 -1.8488894701004028
10.272926330566406 -1.9578075408935547 -1.8488894701004028
10.274457931518555 -1.9915693998336792 -1.8502821922302246
10.264286041259766 -2.0230765342712402 -1.849585771560669
10.25401782989502 -2.054539442062378 -1.8488894701004028
10.262951850891113 -2.08988618850708 -1.8516749143600464
10.267906188964844 -2.1245126724243164 -1.8537640571594238
10.245762825012207 -2.153517961502075 -1.8509786128997803
10.242799758911133 -2.186518430709839 -1.8516749143600464
10.247427940368652 -2.2211897373199463 -1.8537640571594238
10.225011825561523 -2.249985456466675 -1.8509786128997803
10.21789264678955 -2.282097578048706 -1.8509786128997803
10.226038932800293 -2.3176684379577637 -1.8537640571594238
10.211030006408691 -2.348018169403076 -1.852371335029602
10.195930480957031 -2.378296375274658 -1.8509786128997803
10.188408851623535 -2.4103152751922607 -1.8509786128997803
10.1807861328125 -2.4423117637634277 -1.8509786128997803
10.188372611999512 -2.478006362915039 -1.8537640571594238
10.157591819763184 -2.504344940185547 -1.849585771560669
10.161138534545898 -2.5391087532043457 -1.8516749143600464
10.141656875610352 -2.5681169033050537 -1.849585771560669
10.13735294342041 -2.6009442806243896 -1.8502821922302246
10.132944107055664 -2.6337690353393555 -1.8509786128997803
10.11319351196289 -2.6625816822052 -1.8488894701004028
10.100972175598145 -2.693324327468872 -1.8481930494308472
10.103869438171387 -2.7281250953674316 -1.8502821922302246
10.099047660827637 -2.760892868041992 -1.8509786128997803
10.101713180541992 -2.79575777053833 -1.8530677556991577
10.0739164352417 -2.822166919708252 -1.849585771560669
10.083948135375977 -2.859172821044922 -1.8530677556991577
10.067343711853027 -2.8886659145355225 -1.8516749143600464
10.058218955993652 -2.9202797412872314 -1.8516749143600464
10.048995018005371 -2.9518635272979736 -1.8516749143600464
10.039671897888184 -2.983419179916382 -1.8516749143600464
10.026477813720703 -3.0138099193573 -1.8509786128997803
10.016959190368652 -3.045295000076294 -1.8509786128997803
10.003578186035156 -3.075591802597046 -1.8502821922302246
9.982582092285156 -3.1034951210021973 -1.8481930494308472
9.98405647277832 -3.138385057449341 -1.8502821922302246
9.962885856628418 -3.1661555767059326 -1.8481930494308472
9.949139595031738 -3.196235179901123 -1.8474966287612915
9.935303688049316 -3.2262582778930664 -1.8468003273010254
9.92137622833252 -3.2562272548675537 -1.8461039066314697
9.92231273651123 -3.29110050201416 -1.8481930494308472
9.89698600769043 -3.3172481060028076 -1.845407485961914
9.882784843444824 -3.3470609188079834 -1.844711184501648
9.87967586517334 -3.3806421756744385 -1.8461039066314697
9.86528205871582 -3.41037654876709 -1.845407485961914
9.865675926208496 -3.44524884223938 -1.8474966287612915
9.843659400939941 -3.4722938537597656 -1.845407485961914
9.840124130249023 -3.5058462619781494 -1.8468003273010254
9.821648597717285 -3.534074544906616 -1.845407485961914
9.803093910217285 -3.562222719192505 -1.8440147638320923
9.799249649047852 -3.5957164764404297 -1.845407485961914
9.784212112426758 -3.625114679336548 -1.844711184501648
9.765397071838379 -3.6530752182006836 -1.8433183431625366
9.753872871398926 -3.6837353706359863 -1.8433183431625366
9.7422513961792 -3.714360475540161 -1.8433183431625366
9.737886428833008 -3.747776746749878 -1.844711184501648
9.718721389770508 -3.775498867034912 -1.8433183431625366
9.710478782653809 -3.807450771331787 -1.8440147638320923
9.694807052612305 -3.8364882469177246 -1.8433183431625366
9.68636417388916 -3.8683876991271973 -1.8440147638320923
9.670511245727539 -3.8973259925842285 -1.8433183431625366
9.658219337463379 -3.9276881217956543 -1.8433183431625366
9.649476051330566 -3.9595065116882324 -1.8440147638320923
9.640628814697266 -3.9913077354431152 -1.844711184501648
9.63167667388916 -4.023093223571777 -1.845407485961914
9.615360260009766 -4.051802158355713 -1.844711184501648
9.591708183288574 -4.077367305755615 -1.8426220417022705
9.589712142944336 -4.112137794494629 -1.844711184501648
9.573131561279297 -4.140679836273193 -1.8440147638320923
9.552854537963867 -4.1675848960876465 -1.8426220417022705
9.546926498413086 -4.200747489929199 -1.8440147638320923
9.53728199005127 -4.2323174476623535 -1.844711184501648
9.516748428344727 -4.2590413093566895 -1.8433183431625366
9.51050090789795 -4.292158126831055 -1.844711184501648
9.504140853881836 -4.325278282165527 -1.8461039066314697
9.490506172180176 -4.355114459991455 -1.8461039066314697
9.480351448059082 -4.386562824249268 -1.8468003273010254
9.452245712280273 -4.409663677215576 -1.8440147638320923
9.4490385055542 -4.444367408752441 -1.8461039066314697
9.435029983520508 -4.474028587341309 -1.8461039066314697
9.413820266723633 -4.500249862670898 -1.844711184501648
9.399635314941406 -4.529802322387695 -1.844711184501648
9.388900756835938 -4.561031341552734 -1.845407485961914
9.378064155578613 -4.592235565185547 -1.8461039066314697
9.363591194152832 -4.621675491333008 -1.8461039066314697
9.345498085021973 -4.649314880371094 -1.845407485961914
9.334366798400879 -4.680418014526367 -1.8461039066314697
9.31961727142334 -4.709720134735107 -1.8461039066314697
9.3082857131958 -4.7407612800598145 -1.8468003273010254
9.30035400390625 -4.773577690124512 -1.8481930494308472
9.285311698913574 -4.802772521972656 -1.8481930494308472
9.270176887512207 -4.831920146942139 -1.8481930494308472
9.26192569732666 -4.864683151245117 -1.849585771560669
9.236154556274414 -4.888226509094238 -1.8474966287612915
9.220751762390137 -4.917219161987305 -1.8474966287612915
9.201787948608398 -4.94429874420166 -1.8468003273010254
9.182745933532715 -4.97130823135376 -1.8461039066314697
9.163623809814453 -4.998246192932129 -1.845407485961914
9.14787769317627 -5.027008056640625 -1.845407485961914
9.128593444824219 -5.053814888000488 -1.844711184501648
9.12643051147461 -5.090143203735352 -1.8474966287612915
9.113828659057617 -5.1207194328308105 -1.8481930494308472
9.10112476348877 -5.151267051696777 -1.8488894701004028
9.07805347442627 -5.175929546356201 -1.8474966287612915
9.058332443237305 -5.202462196350098 -1.8468003273010254
9.041943550109863 -5.230894565582275 -1.8468003273010254
9.015254974365234 -5.253325462341309 -1.844711184501648
9.01229476928711 -5.289597988128662 -1.8474966287612915
8.995633125305176 -5.317883014678955 -1.8474966287612915
8.989035606384277 -5.352162837982178 -1.849585771560669
8.955286979675293 -5.370248317718506 -1.8461039066314697
8.955229759216309 -5.408537864685059 -1.849585771560669
8.938193321228027 -5.436645030975342 -1.849585771560669
8.89755916595459 -5.450294017791748 -1.844711184501648
8.887097358703613 -5.482356548309326 -1.8461039066314697
8.88321304321289 -5.518563270568848 -1.8488894701004028
8.855813026428223 -5.540176868438721 -1.8468003273010254
8.841697692871094 -5.570070743560791 -1.8474966287612915
8.810851097106934 -5.589378356933594 -1.844711184501648
8.799887657165527 -5.621273040771484 -1.8461039066314697
8.785496711730957 -5.651021957397461 -1.8468003273010254
8.7677001953125 -5.678595066070557 -1.8468003273010254
8.746519088745117 -5.703958034515381 -1.8461039066314697
8.74172592163086 -5.740056037902832 -1.8488894701004028
8.717077255249023 -5.763145923614502 -1.8474966287612915
8.702207565307617 -5.7926859855651855 -1.8481930494308472
8.687238693237305 -5.822189807891846 -1.8488894701004028
8.672171592712402 -5.851654529571533 -1.849585771560669
8.63745403289795 -5.86780309677124 -1.8461039066314697
8.622227668762207 -5.897133827209473 -1.8468003273010254
8.587437629699707 -5.913023471832275 -1.8433183431625366
8.588241577148438 -5.953436851501465 -1.8474966287612915
8.569497108459473 -5.980386257171631 -1.8474966287612915
8.544220924377441 -6.002750873565674 -1.8461039066314697
8.518888473510742 -6.025014400482178 -1.844711184501648
8.512752532958984 -6.060886383056641 -1.8474966287612915
8.484065055847168 -6.080716133117676 -1.845407485961914
8.461727142333984 -6.105033874511719 -1.844711184501648
8.4425048828125 -6.131587028503418 -1.844711184501648
8.420021057128906 -6.155755996704102 -1.8440147638320923
8.397467613220215 -6.179843425750732 -1.8433183431625366
8.378011703491211 -6.206194877624512 -1.8433183431625366
8.355316162109375 -6.230128288269043 -1.8426220417022705
8.342002868652344 -6.261075496673584 -1.8440147638320923
8.306577682495117 -6.275381088256836 -1.840532898902893
8.311904907226562 -6.320519924163818 -1.8461039066314697
8.288878440856934 -6.344206809997559 -1.845407485961914
8.26890754699707 -6.370214462280273 -1.845407485961914
8.255080223083496 -6.400988578796387 -1.8468003273010254
8.222508430480957 -6.4171977043151855 -1.8440147638320923
8.20230770111084 -6.442997932434082 -1.8440147638320923
8.188204765319824 -6.473620891571045 -1.845407485961914
8.17091178894043 -6.501763820648193 -1.8461039066314697
8.13814640045166 -6.517552852630615 -1.8433183431625366
8.123764038085938 -6.548031330108643 -1.844711184501648
8.106210708618164 -6.57600212097168 -1.845407485961914
8.082460403442383 -6.5989460945129395 -1.844711184501648
8.061691284179688 -6.624303817749023 -1.844711184501648
8.043875694274902 -6.6521077156066895 -1.845407485961914
8.019909858703613 -6.674826622009277 -1.844711184501648
7.992861270904541 -6.694930553436279 -1.8433183431625366
7.9657673835754395 -6.71492862701416 -1.8419256210327148
7.95664644241333 -6.750113487243652 -1.844711184501648
7.926413536071777 -6.767404079437256 -1.8426220417022705
7.9110894203186035 -6.797407150268555 -1.8440147638320923
7.880756378173828 -6.814498424530029 -1.8419256210327148
7.862281799316406 -6.841806888580322 -1.8426220417022705
7.84963846206665 -6.874258995056152 -1.844711184501648
7.816183090209961 -6.888467788696289 -1.8419256210327148
7.803344249725342 -6.920830249786377 -1.8440147638320923
7.772747039794922 -6.937443256378174 -1.8419256210327148
7.756776332855225 -6.967090606689453 -1.8433183431625366
7.723161697387695 -6.980860233306885 -1.840532898902893
7.7128472328186035 -7.015690326690674 -1.8433183431625366
7.690768718719482 -7.039886951446533 -1.8433183431625366
7.657025337219238 -7.053339004516602 -1.840532898902893
7.631940841674805 -7.074679851531982 -1.8398364782333374
7.6211981773376465 -7.109369277954102 -1.8426220417022705
7.575850963592529 -7.111710071563721 -1.8370509147644043
7.564925193786621 -7.146295070648193 -1.8398364782333374
7.533872604370117 -7.161884784698486 -1.83774733543396
7.525568008422852 -7.199130535125732 -1.8412292003631592
7.5029144287109375 -7.222737789154053 -1.8412292003631592
7.477356433868408 -7.243532657623291 -1.840532898902893
7.4489216804504395 -7.261488914489746 -1.8391400575637817
7.423260688781738 -7.2820963859558105 -1.8384437561035156
7.40034818649292 -7.305380344390869 -1.8384437561035156
7.3773603439331055 -7.328593730926514 -1.8384437561035156
7.354300498962402 -7.351734161376953 -1.8384437561035156
7.322836399078369 -7.366421699523926 -1.8363546133041382
7.30519437789917 -7.39499568939209 -1.83774733543396
7.28744649887085 -7.423529148101807 -1.8391400575637817
7.253086566925049 -7.435108661651611 -1.8363546133041382
7.2214674949646 -7.449374198913574 -1.8342654705047607
7.192562580108643 -7.466351509094238 -1.8328726291656494
7.174520015716553 -7.49459981918335 -1.8342654705047607
7.142795562744141 -7.508541107177734 -1.8321763277053833
7.116464614868164 -7.52808141708374 -1.8314799070358276
7.09008264541626 -7.5475311279296875 -1.830783486366272
7.069023609161377 -7.5726470947265625 -1.8314799070358276
7.05323600769043 -7.603479862213135 -1.833569049835205
7.0293145179748535 -7.625601291656494 -1.833569049835205
7.000001907348633 -7.641838550567627 -1.8321763277053833
6.973307132720947 -7.660878658294678 -1.8314799070358276
6.94920539855957 -7.682748794555664 -1.8314799070358276
6.919770240783691 -7.6986823081970215 -1.8300871849060059
6.89555025100708 -7.720383644104004 -1.8300871849060059
6.881720066070557 -7.753792762756348 -1.8328726291656494
6.852115154266357 -7.769465446472168 -1.8314799070358276
6.82248067855835 -7.785029411315918 -1.8300871849060059
6.787644386291504 -7.794541358947754 -1.8273016214370728
6.765699863433838 -7.818805694580078 -1.8279980421066284
6.748807430267334 -7.848982810974121 -1.8300871849060059
6.721556663513184 -7.867152214050293 -1.8293907642364502
6.689160346984863 -7.879221439361572 -1.8273016214370728
6.671994686126709 -7.9092278480529785 -1.8293907642364502
6.65217399597168 -7.936186790466309 -1.830783486366272
6.629729747772217 -7.960073471069336 -1.8314799070358276
6.599666595458984 -7.974793434143066 -1.8300871849060059
6.577081680297852 -7.998530387878418 -1.830783486366272
6.541954040527344 -8.006950378417969 -1.8279980421066284
6.514284610748291 -8.024405479431152 -1.8273016214370728
6.491515636444092 -8.047897338867188 -1.8279980421066284
6.468662738800049 -8.071325302124023 -1.8286943435668945
6.440820217132568 -8.088525772094727 -1.8279980421066284
6.412935733795166 -8.105630874633789 -1.8273016214370728
6.389873027801514 -8.128833770751953 -1.8279980421066284
6.369153022766113 -8.155077934265137 -1.8293907642364502
6.341086387634277 -8.171934127807617 -1.8286943435668945
6.305761814117432 -8.179337501525879 -1.825908899307251
6.280036449432373 -8.199106216430664 -1.825908899307251
6.256631851196289 -8.221930503845215 -1.826605200767517
6.230771064758301 -8.241545677185059 -1.826605200767517
6.202482223510742 -8.257930755615234 -1.825908899307251
6.174155235290527 -8.274216651916504 -1.8252124786376953
6.145784378051758 -8.290409088134766 -1.8245161771774292
6.112700939178467 -8.300161361694336 -1.8224270343780518
6.084269046783447 -8.316144943237305 -1.821730613708496
6.058113098144531 -8.33521842956543 -1.821730613708496
6.031898498535156 -8.354207992553711 -1.821730613708496
6.001030921936035 -8.366715431213379 -1.8203378915786743
5.9770026206970215 -8.3887357711792 -1.8210341930389404
5.95289421081543 -8.410686492919922 -1.821730613708496
5.921910285949707 -8.42290210723877 -1.8203378915786743
5.895421504974365 -8.441463470458984 -1.8203378915786743
5.864382266998291 -8.453471183776855 -1.818945050239563
5.840030193328857 -8.475096702575684 -1.8196414709091187
5.808926582336426 -8.48690128326416 -1.8182487487792969
5.780020236968994 -8.501851081848145 -1.8175523281097412
5.755488872528076 -8.52323055267334 -1.8182487487792969
5.722100734710693 -8.53145694732666 -1.8161596059799194
5.699637413024902 -8.555947303771973 -1.8175523281097412
5.681423187255859 -8.58695125579834 -1.8203378915786743
5.637113094329834 -8.578423500061035 -1.814766764640808
5.614443302154541 -8.602686882019043 -1.8161596059799194
5.585246562957764 -8.616978645324707 -1.8154631853103638
5.558147430419922 -8.634482383728027 -1.8154631853103638
5.533114910125732 -8.655220031738281 -1.8161596059799194
5.503785610198975 -8.669235229492188 -1.8154631853103638
5.476524829864502 -8.686482429504395 -1.8154631853103638
5.440846920013428 -8.690290451049805 -1.8126776218414307
5.409358501434326 -8.700650215148926 -1.8112848997116089
5.377859592437744 -8.710898399353027 -1.809892177581787
5.358701229095459 -8.741183280944824 -1.8126776218414307
5.333262920379639 -8.761338233947754 -1.8133740425109863
5.3057122230529785 -8.778050422668457 -1.8133740425109863
5.276081562042236 -8.791297912597656 -1.8126776218414307
5.252468585968018 -8.814597129821777 -1.814070463180542
5.2267560958862305 -8.834444999694824 -1.814766764640808
5.198977470397949 -8.850820541381836 -1.814766764640808
5.173130512237549 -8.870513916015625 -1.8154631853103638
5.14326286315918 -8.883312225341797 -1.814766764640808
5.121218681335449 -8.909671783447266 -1.8168559074401855
5.093204498291016 -8.925715446472168 -1.8168559074401855
5.06125545501709 -8.934818267822266 -1.8154631853103638
5.025437831878662 -8.936942100524902 -1.8126776218414307
4.999256134033203 -8.956125259399414 -1.8133740425109863
4.969185829162598 -8.968341827392578 -1.8126776218414307
4.940988063812256 -8.983907699584961 -1.8126776218414307
4.9127397537231445 -8.999385833740234 -1.8126776218414307
4.886319160461426 -9.018238067626953 -1.8133740425109863
4.859828472137451 -9.03701400756836 -1.814070463180542
4.827703952789307 -9.0452880859375 -1.8126776218414307
4.797421455383301 -9.056927680969238 -1.8119813203811646
4.772610187530518 -9.078927993774414 -1.8133740425109863
4.744063854217529 -9.093876838684082 -1.8133740425109863
4.715470790863037 -9.108736038208008 -1.8133740425109863
4.683230876922607 -9.116497993469238 -1.8119813203811646
4.654569625854492 -9.13116455078125 -1.8119813203811646
4.629415512084961 -9.152772903442383 -1.8133740425109863
4.598871231079102 -9.163750648498535 -1.8126776218414307
4.570059299468994 -9.178153991699219 -1.8126776218414307
4.541202545166016 -9.192465782165527 -1.8126776218414307
4.514036655426025 -9.210223197937012 -1.8133740425109863
4.485078811645508 -9.224359512329102 -1.8133740425109863
4.454366207122803 -9.234856605529785 -1.8126776218414307
4.427031517028809 -9.252358436584473 -1.8133740425109863
4.399631023406982 -9.269779205322266 -1.814070463180542
4.370489120483398 -9.283554077148438 -1.814070463180542
4.341301918029785 -9.297239303588867 -1.814070463180542
4.312072277069092 -9.310832023620605 -1.814070463180542
4.281155586242676 -9.32075309753418 -1.8133740425109863
4.251852035522461 -9.334157943725586 -1.8133740425109863
4.2257513999938965 -9.354646682739258 -1.814766764640808
4.194731712341309 -9.36428165435791 -1.814070463180542
4.163692951202393 -9.373814582824707 -1.8133740425109863
4.135810852050781 -9.390453338623047 -1.814070463180542
4.1031389236450195 -9.396181106567383 -1.8126776218414307
4.075163841247559 -9.412639617919922 -1.8133740425109863
4.050233840942383 -9.436254501342773 -1.8154631853103638
4.014399528503418 -9.434433937072754 -1.8126776218414307
3.9862711429595947 -9.450628280639648 -1.8133740425109863
3.958082437515259 -9.4667387008667 -1.814070463180542
3.9298295974731445 -9.482765197753906 -1.814766764640808
3.9015159606933594 -9.498708724975586 -1.8154631853103638
3.8746249675750732 -9.51821517944336 -1.8168559074401855
3.8476505279541016 -9.537646293640137 -1.8182487487792969
3.8176698684692383 -9.549686431884766 -1.8182487487792969
3.7789454460144043 -9.539660453796387 -1.814070463180542
3.754713296890259 -9.56615161895752 -1.8168559074401855
3.720358371734619 -9.566886901855469 -1.814766764640808
3.6931166648864746 -9.5858793258667 -1.8161596059799194
3.6629855632781982 -9.597434043884277 -1.8161596059799194
3.628636598587036 -9.597840309143066 -1.814070463180542
3.6067545413970947 -9.631325721740723 -1.8182487487792969
3.575108528137207 -9.638916015625 -1.8175523281097412
3.5407345294952393 -9.639008522033691 -1.8154631853103638
3.517169713973999 -9.668591499328613 -1.818945050239563
3.484107255935669 -9.672182083129883 -1.8175523281097412
3.4576733112335205 -9.694210052490234 -1.8196414709091187
3.4180192947387695 -9.679025650024414 -1.814766764640808
3.392794132232666 -9.704588890075684 -1.8175523281097412
3.364867925643921 -9.722643852233887 -1.818945050239563
3.329200506210327 -9.71826171875 -1.8161596059799194
3.3024473190307617 -9.739864349365234 -1.8182487487792969
3.271831750869751 -9.750191688537598 -1.8182487487792969
3.237459897994995 -9.749207496643066 -1.8161596059799194
3.2092769145965576 -9.766813278198242 -1.8175523281097412
3.1773593425750732 -9.773101806640625 -1.8168559074401855
3.1466403007507324 -9.783035278320312 -1.8168559074401855
3.118278741836548 -9.80038070678711 -1.8182487487792969
3.088656425476074 -9.813885688781738 -1.818945050239563
3.0566413402557373 -9.819779396057129 -1.8182487487792969
3.0246169567108154 -9.825568199157715 -1.8175523281097412
2.996027946472168 -9.842558860778809 -1.818945050239563
2.963956356048584 -9.848151206970215 -1.8182487487792969
2.9341278076171875 -9.861188888549805 -1.818945050239563
2.8964643478393555 -9.847684860229492 -1.814766764640808
2.8710103034973145 -9.87564754486084 -1.8182487487792969
2.8388824462890625 -9.88083267211914 -1.8175523281097412
2.806750774383545 -9.885913848876953 -1.8168559074401855
2.776745319366455 -9.898473739624023 -1.8175523281097412
2.7393224239349365 -9.884373664855957 -1.8133740425109863
2.7092957496643066 -9.896730422973633 -1.814070463180542
2.6802468299865723 -9.912797927856445 -1.8154631853103638
2.644010305404663 -9.902140617370605 -1.8119813203811646
2.6169073581695557 -9.92563247680664 -1.814766764640808
2.582735061645508 -9.922369956970215 -1.8126776218414307
2.5535104274749756 -9.938064575195312 -1.814070463180542
2.51743483543396 -9.926947593688965 -1.8105884790420532
2.4833667278289795 -9.923344612121582 -1.8084993362426758
2.453125476837158 -9.934920310974121 -1.8091957569122314
2.4163081645965576 -9.91961669921875 -1.8050174713134766
2.3786911964416504 -9.900348663330078 -1.800142765045166
2.3448517322540283 -9.89627456665039 -1.7980536222457886
2.3137495517730713 -9.903593063354492 -1.7980536222457886
2.2826271057128906 -9.910812377929688 -1.7980536222457886
2.2514796257019043 -9.91793441772461 -1.7980536222457886
2.221169948577881 -9.928803443908691 -1.7987500429153442
2.192509651184082 -9.947271347045898 -1.8008391857147217
2.161248207092285 -9.954111099243164 -1.8008391857147217
2.1291441917419434 -9.956998825073242 -1.800142765045166
2.099475622177124 -9.971348762512207 -1.8015356063842773
2.0689382553100586 -9.981751441955566 -1.8022319078445435
2.0391433238983154 -9.995920181274414 -1.8036247491836548
2.00850510597229 -10.006139755249023 -1.804321050643921
1.9785879850387573 -10.02012825012207 -1.8057138919830322
1.9410914182662964 -9.995361328125 -1.800142765045166
1.9082026481628418 -9.993673324584961 -1.7987500429153442
1.8782497644424438 -10.007360458374023 -1.800142765045166
1.8453723192214966 -10.005465507507324 -1.7987500429153442
1.8132296800613403 -10.007336616516113 -1.7980536222457886
1.7838516235351562 -10.024618148803711 -1.800142765045166
1.7516711950302124 -10.02629280090332 -1.7994464635849
1.718166470527649 -10.020099639892578 -1.7973573207855225
1.686680793762207 -10.025447845458984 -1.7973573207855225
1.656458854675293 -10.038470268249512 -1.7987500429153442
1.624284267425537 -10.039734840393066 -1.7980536222457886
1.5921181440353394 -10.040898323059082 -1.7973573207855225
1.5635886192321777 -10.065311431884766 -1.8008391857147217
1.5301846265792847 -10.058491706848145 -1.7987500429153442
1.4985769987106323 -10.063250541687012 -1.7987500429153442
1.4658186435699463 -10.060111999511719 -1.7973573207855225
1.4336506128311157 -10.060768127441406 -1.7966609001159668
1.4031230211257935 -10.07302474975586 -1.7980536222457886
1.372534990310669 -10.085189819335938 -1.7994464635849
1.3408442735671997 -10.089451789855957 -1.7994464635849
1.3101534843444824 -10.101426124572754 -1.8008391857147217
1.27742338180542 -10.097677230834961 -1.7994464635849
1.2466579675674438 -10.109458923339844 -1.8008391857147217
1.2144241333007812 -10.109415054321289 -1.800142765045166
1.1849455833435059 -10.13274097442627 -1.8036247491836548
1.1557776927947998 -10.159895896911621 -1.8078030347824097
1.1221216917037964 -10.14781665802002 -1.8050174713134766
1.0919177532196045 -10.16695785522461 -1.8078030347824097
1.0595656633377075 -10.166419982910156 -1.807106614112854
1.0276211500167847 -10.169698715209961 -1.807106614112854
0.9975850582122803 -10.19247817993164 -1.8105884790420532
0.9651877284049988 -10.19163990020752 -1.809892177581787
0.9324464201927185 -10.186776161193848 -1.8084993362426758
0.8990541696548462 -10.17396068572998 -1.8057138919830322
0.8694276809692383 -10.204208374023438 -1.8105884790420532
0.8367212414741516 -10.199037551879883 -1.8091957569122314
0.8049852848052979 -10.205543518066406 -1.809892177581787
0.772621750831604 -10.204093933105469 -1.8091957569122314
0.7405627965927124 -10.206470489501953 -1.8091957569122314
0.7082214951515198 -10.204817771911621 -1.8084993362426758
0.6764184832572937 -10.210922241210938 -1.8091957569122314
0.6430960893630981 -10.193341255187988 -1.8057138919830322
0.6117785573005676 -10.207107543945312 -1.8078030347824097
0.5783686637878418 -10.185382843017578 -1.8036247491836548
0.546156108379364 -10.18321704864502 -1.8029283285140991
0.5139628648757935 -10.180948257446289 -1.8022319078445435
0.48104429244995117 -10.162840843200684 -1.7987500429153442
0.44911640882492065 -10.164301872253418 -1.7987500429153442
0.4165356159210205 -10.149920463562012 -1.7959644794464111
0.3846461772918701 -10.151178359985352 -1.7959644794464111
0.35206905007362366 -10.13265323638916 -1.792482614517212
0.3202342092990875 -10.133709907531738 -1.792482614517212
0.2886227071285248 -10.14254093170166 -1.7938753366470337
0.2568567991256714 -10.147335052490234 -1.7945717573165894
0.22453978657722473 -10.128402709960938 -1.7910898923873901
0.1925690472126007 -10.121180534362793 -1.7896970510482788
0.16052080690860748 -10.105981826782227 -1.7869116067886353
0.12862254679203033 -10.094621658325195 -1.7848224639892578
0.09683265537023544 -10.087098121643066 -1.783429741859436
0.06504043936729431 -10.0715970993042 -1.780644178390503
0.03341188281774521 -10.075690269470215 -1.7813405990600586
0.0017548140604048967 -10.059989929199219 -1.7785550355911255
-0.029859313741326332 -10.063883781433105 -1.7792514562606812
-0.06142811104655266 -10.055863380432129 -1.7778586149215698
-0.09298323839902878 -10.051682472229004 -1.7771623134613037
-0.12461031973361969 -10.055278778076172 -1.7778586149215698
-0.15607737004756927 -10.046960830688477 -1.776465892791748
-0.18778520822525024 -10.054298400878906 -1.7778586149215698
-0.21928532421588898 -10.04971981048584 -1.7771623134613037
-0.25085681676864624 -10.048981666564941 -1.7771623134613037
-0.2822044789791107 -10.040268898010254 -1.7757694721221924
-0.3137459456920624 -10.039332389831543 -1.7757694721221924
-0.345417320728302 -10.042234420776367 -1.776465892791748
-0.37681692838668823 -10.037162780761719 -1.7757694721221924
-0.4083481729030609 -10.035929679870605 -1.7757694721221924
-0.44004788994789124 -10.038533210754395 -1.776465892791748
-0.4713982939720154 -10.033166885375977 -1.7757694721221924
-0.5033085942268372 -10.039505004882812 -1.7771623134613037
-0.5344274044036865 -10.030006408691406 -1.7757694721221924
-0.5659353733062744 -10.028278350830078 -1.7757694721221924
-0.5972035527229309 -10.0225191116333 -1.7750731706619263
-0.629178524017334 -10.02845573425293 -1.776465892791748
-0.6617171764373779 -10.042150497436523 -1.7792514562606812
-0.6929913759231567 -10.036092758178711 -1.7785550355911255
-0.7256524562835693 -10.049580574035645 -1.7813405990600586
-0.7578130960464478 -10.055107116699219 -1.7827333211898804
-0.7884713411331177 -10.04089641571045 -1.780644178390503
-0.8200122714042664 -10.038370132446289 -1.780644178390503
-0.8518781661987305 -10.039669036865234 -1.7813405990600586
-0.8823788166046143 -10.025172233581543 -1.7792514562606812
-0.9142276644706726 -10.026273727416992 -1.7799477577209473
-0.9457197189331055 -10.02335262298584 -1.7799477577209473
-0.9783517122268677 -10.032092094421387 -1.7820369005203247
-1.0094693899154663 -10.025050163269043 -1.7813405990600586
-1.0417734384536743 -10.029664993286133 -1.7827333211898804
-1.0732778310775757 -10.026342391967773 -1.7827333211898804
-1.1069269180297852 -10.042497634887695 -1.7862151861190796
-1.138027548789978 -10.035057067871094 -1.7855188846588135
-1.1690922975540161 -10.027519226074219 -1.7848224639892578
-1.2010577917099 -10.027708053588867 -1.7855188846588135
-1.2325552701950073 -10.023885726928711 -1.7855188846588135
-1.265024185180664 -10.027779579162598 -1.7869116067886353
-1.2960163354873657 -10.01984977722168 -1.7862151861190796
-1.325935959815979 -10.004014015197754 -1.7841260433197021
-1.3584181070327759 -10.00760555267334 -1.7855188846588135
-1.3893096446990967 -9.99938678741455 -1.7848224639892578
-1.4212690591812134 -9.998872756958008 -1.7855188846588135
-1.4526748657226562 -9.994359016418457 -1.7855188846588135
-1.4852240085601807 -9.997536659240723 -1.7869116067886353
-1.5148521661758423 -9.981139183044434 -1.7848224639892578
-1.5468050241470337 -9.980223655700684 -1.7855188846588135
-1.5769182443618774 -9.967534065246582 -1.7841260433197021
-1.60759699344635 -9.95864200592041 -1.783429741859436
-1.6388756036758423 -9.953542709350586 -1.783429741859436
-1.6701380014419556 -9.948344230651855 -1.783429741859436
-1.7020456790924072 -9.946930885314941 -1.7841260433197021
-1.7326104640960693 -9.937654495239258 -1.783429741859436
-1.7658885717391968 -9.94379711151123 -1.7855188846588135
-1.7964187860488892 -9.934324264526367 -1.7848224639892578
-1.8304723501205444 -9.944127082824707 -1.787608027458191
-1.8602510690689087 -9.930583953857422 -1.7862151861190796
-1.892177700996399 -9.928560256958008 -1.7869116067886353
-1.9226107597351074 -9.918699264526367 -1.7862151861190796
-1.952238917350769 -9.904882431030273 -1.7848224639892578
-1.9833468198776245 -9.898699760437012 -1.7848224639892578
-2.010502815246582 -9.87312126159668 -1.7813405990600586
-2.0431067943573 -9.874470710754395 -1.7827333211898804
-2.071688175201416 -9.856439590454102 -1.780644178390503
-2.1001763343811035 -9.838325500488281 -1.7785550355911255
-2.1294057369232178 -9.823981285095215 -1.7771623134613037
-2.1560235023498535 -9.79800796508789 -1.773680329322815
-2.185936212539673 -9.787342071533203 -1.7729840278625488
-2.2184150218963623 -9.78810977935791 -1.7743767499923706
-2.249154806137085 -9.781091690063477 -1.7743767499923706
-2.278977394104004 -9.7701416015625 -1.773680329322815
-2.311471700668335 -9.770600318908691 -1.7750731706619263
-2.3449127674102783 -9.774781227111816 -1.7771623134613037
-2.3784024715423584 -9.778847694396973 -1.7792514562606812
-2.4091122150421143 -9.771327018737793 -1.7792514562606812
-2.443618059158325 -9.778997421264648 -1.7820369005203247
-2.4743258953094482 -9.771272659301758 -1.7820369005203247
-2.5069689750671387 -9.77108097076416 -1.783429741859436
-2.537653923034668 -9.76315689086914 -1.783429741859436
-2.5723252296447754 -9.77037239074707 -1.7862151861190796
-2.60199236869812 -9.758437156677246 -1.7855188846588135
-2.6305811405181885 -9.742609024047852 -1.7841260433197021
-2.6611759662628174 -9.734296798706055 -1.7841260433197021
-2.693845748901367 -9.733481407165527 -1.7855188846588135
-2.724411725997925 -9.724970817565918 -1.7855188846588135
-2.753876209259033 -9.712574005126953 -1.7848224639892578
-2.7854599952697754 -9.707660675048828 -1.7855188846588135
-2.8181405067443848 -9.706426620483398 -1.7869116067886353
-2.84417986869812 -9.682409286499023 -1.7841260433197021
-2.879072666168213 -9.688528060913086 -1.7869116067886353
-2.909493923187256 -9.679436683654785 -1.7869116067886353
-2.9387433528900146 -9.666479110717773 -1.7862151861190796
-2.9714126586914062 -9.664730072021484 -1.787608027458191
-2.999422073364258 -9.64782428741455 -1.7862151861190796
-3.028536081314087 -9.63459587097168 -1.7855188846588135
-3.0599803924560547 -9.628787994384766 -1.7862151861190796
-3.0914199352264404 -9.62287712097168 -1.7869116067886353
-3.12041974067688 -9.609371185302734 -1.7862151861190796
-3.1518216133117676 -9.603262901306152 -1.7869116067886353
-3.1782562732696533 -9.582098960876465 -1.7848224639892578
-3.2108452320098877 -9.579536437988281 -1.7862151861190796
-3.2421882152557373 -9.573132514953613 -1.7869116067886353
-3.2735228538513184 -9.56662654876709 -1.787608027458191
-3.3048486709594727 -9.560017585754395 -1.788304328918457
-3.3270742893218994 -9.527275085449219 -1.7841260433197021
-3.3569869995117188 -9.516777038574219 -1.7841260433197021
-3.388190746307373 -9.509894371032715 -1.7848224639892578
-3.420717716217041 -9.50661563873291 -1.7862151861190796
-3.4519124031066895 -9.499523162841797 -1.7869116067886353
-3.4790258407592773 -9.481236457824707 -1.7855188846588135
-3.5156352519989014 -9.488728523254395 -1.7890007495880127
-3.5468082427978516 -9.481325149536133 -1.7896970510482788
-3.5807526111602783 -9.48119068145752 -1.7917861938476562
-3.606311559677124 -9.458852767944336 -1.7896970510482788
-3.63601016998291 -9.447476387023926 -1.7896970510482788
-3.6670970916748047 -9.439680099487305 -1.7903934717178345
-3.696735143661499 -9.428112983703613 -1.7903934717178345
-3.7263362407684326 -9.416452407836914 -1.7903934717178345
-3.757361888885498 -9.408356666564941 -1.7910898923873901
-3.7869012355804443 -9.396506309509277 -1.7910898923873901
-3.8149168491363525 -9.380914688110352 -1.7903934717178345
-3.8488547801971436 -9.379815101623535 -1.792482614517212
-3.8767971992492676 -9.364038467407227 -1.7917861938476562
-3.903160333633423 -9.34454345703125 -1.7903934717178345
-3.934027910232544 -9.335865020751953 -1.7910898923873901
-3.9633359909057617 -9.323460578918457 -1.7910898923873901
-3.992607355117798 -9.31096363067627 -1.7910898923873901
-4.024966716766357 -9.305603981018066 -1.792482614517212
-4.052606582641602 -9.289302825927734 -1.7917861938476562
-4.08018159866333 -9.272920608520508 -1.7910898923873901
-4.1092939376831055 -9.260056495666504 -1.7910898923873901
-4.139974117279053 -9.250696182250977 -1.7917861938476562
-4.16739559173584 -9.234054565429688 -1.7910898923873901
-4.19801664352417 -9.224501609802246 -1.7917861938476562
-4.226974010467529 -9.211268424987793 -1.7917861938476562
-4.257545471191406 -9.201517105102539 -1.792482614517212
-4.291428089141846 -9.198805809020996 -1.7945717573165894
-4.321982383728027 -9.188841819763184 -1.795268177986145
-4.347454071044922 -9.16810131072998 -1.7938753366470337
-4.3762335777282715 -9.154398918151855 -1.7938753366470337
-4.406681537628174 -9.144153594970703 -1.7945717573165894
-4.433666229248047 -9.126721382141113 -1.7938753366470337
-4.464049339294434 -9.116284370422363 -1.7945717573165894
-4.4926676750183105 -9.102214813232422 -1.7945717573165894
-4.519484519958496 -9.0845308303833 -1.7938753366470337
-4.546236991882324 -9.066766738891602 -1.7931790351867676
-4.580028533935547 -9.06298542022705 -1.795268177986145
-4.599540710449219 -9.031002044677734 -1.7917861938476562
-4.635084629058838 -9.030524253845215 -1.7945717573165894
-4.668859004974365 -9.02641487121582 -1.7966609001159668
-4.693552494049072 -9.004715919494629 -1.795268177986145
-4.723650932312012 -8.993414878845215 -1.7959644794464111
-4.7500386238098145 -8.975048065185547 -1.795268177986145
-4.776358127593994 -8.956605911254883 -1.7945717573165894
-4.81006383895874 -8.951966285705566 -1.7966609001159668
-4.832538604736328 -8.92641830444336 -1.7945717573165894
-4.860558032989502 -8.911192893981934 -1.7945717573165894
-4.89422082901001 -8.906234741210938 -1.7966609001159668
-4.9164533615112305 -8.880476951599121 -1.7945717573165894
-4.946244716644287 -8.868428230285645 -1.795268177986145
-4.977940559387207 -8.859713554382324 -1.7966609001159668
-5.001869201660156 -8.837174415588379 -1.795268177986145
-5.029607772827148 -8.821416854858398 -1.795268177986145
-5.0592570304870605 -8.808989524841309 -1.7959644794464111
-5.082961082458496 -8.786232948303223 -1.7945717573165894
-5.114505767822266 -8.777027130126953 -1.7959644794464111
-5.144048690795898 -8.764312744140625 -1.7966609001159668
-5.167548179626465 -8.741327285766602 -1.795268177986145
-5.196998119354248 -8.728435516357422 -1.7959644794464111
-5.222368240356445 -8.708686828613281 -1.795268177986145
-5.249701976776123 -8.69223690032959 -1.795268177986145
-5.276983737945557 -8.675702095031738 -1.795268177986145
-5.298041820526123 -8.649003982543945 -1.7931790351867676
-5.314845085144043 -8.615556716918945 -1.7896970510482788
-5.337728500366211 -8.592124938964844 -1.788304328918457
-5.3646955490112305 -8.575313568115234 -1.788304328918457
-5.393709182739258 -8.561749458312988 -1.7890007495880127
-5.424800872802734 -8.55141544342041 -1.7903934717178345
-5.4516377449035645 -8.534331321716309 -1.7903934717178345
-5.472029685974121 -8.507224082946777 -1.788304328918457
-5.483739852905273 -8.46684741973877 -1.783429741859436
-5.523222923278809 -8.469374656677246 -1.787608027458191
-5.532507419586182 -8.425640106201172 -1.7820369005203247
-5.522018909454346 -8.352360725402832 -1.7701984643936157
-5.52858829498291 -8.305461883544922 -1.7639310359954834
-5.484480381011963 -8.18334674835205 -1.7416468858718872
-5.466098785400391 -8.100773811340332 -1.7277193069458008
-5.473814010620117 -8.0574951171875 -1.7221481800079346
-5.490204334259033 -8.027255058288574 -1.719362735748291
-5.481888294219971 -7.961304187774658 -1.7089170217514038
-5.477700233459473 -7.9019598960876465 -1.6998640298843384
-5.475447654724121 -7.845950603485107 -1.6915074586868286
-5.475162029266357 -7.793256759643555 -1.6838473081588745
-5.476871490478516 -7.74385929107666 -1.6768834590911865
-5.476043701171875 -7.691319465637207 -1.6692233085632324
-5.48411750793457 -7.651666641235352 -1.6643487215042114
-5.482778072357178 -7.599262237548828 -1.6566884517669678
-5.488107681274414 -7.556503772735596 -1.6511174440383911
-5.493221282958984 -7.513787746429443 -1.6455464363098145
-5.500456809997559 -7.47428560256958 -1.640671730041504
-5.500465393066406 -7.425317764282227 -1.6337080001831055
-5.507284164428711 -7.3858962059021 -1.628833293914795
-5.513906955718994 -7.3465070724487305 -1.6239585876464844
-5.517965793609619 -7.3040056228637695 -1.6183875799179077
-5.528964042663574 -7.270956993103027 -1.6149057149887085
-5.539809226989746 -7.237912178039551 -1.6114237308502197
-5.548097610473633 -7.201749801635742 -1.6072454452514648
-5.561039447784424 -7.171834468841553 -1.6044600009918213
-5.576272487640381 -7.145012855529785 -1.6023708581924438
-5.586526393890381 -7.111970901489258 -1.5988889932632446
-5.577085018157959 -7.0542168617248535 -1.5898360013961792
-5.61393404006958 -7.0551533699035645 -1.594014286994934
-5.655767440795898 -7.062078952789307 -1.5995852947235107
-5.695229530334473 -7.065743446350098 -1.6044600009918213
-5.749658584594727 -7.087582111358643 -1.6135128736495972
-5.786844253540039 -7.0877909660339355 -1.617691159248352
-5.809082984924316 -7.069575786590576 -1.617691159248352
-5.826241493225098 -7.045220851898193 -1.6162984371185303
-5.853386402130127 -7.032937526702881 -1.617691159248352
-5.852689266204834 -6.987337589263916 -1.6114237308502197
-5.861917972564697 -6.953857421875 -1.6079418659210205
-5.893928050994873 -6.947421550750732 -1.6107274293899536
-5.908051013946533 -6.919886112213135 -1.6086382865905762
-5.922060966491699 -6.892328262329102 -1.6065491437911987
-5.941108703613281 -6.870709419250488 -1.605852723121643
-5.960078239440918 -6.849039077758789 -1.6051563024520874
-5.973781585693359 -6.821391582489014 -1.60306715965271
-5.997784614562988 -6.80554723739624 -1.6037635803222656
-6.011294841766357 -6.777829647064209 -1.6016744375228882
-6.032558917999268 -6.7589111328125 -1.6016744375228882
-6.051131248474121 -6.736995220184326 -1.6009780168533325
-6.066983699798584 -6.712106704711914 -1.5995852947235107
