VERSION 0.7
FIELDS x y z
SIZE 4 4 4
TYPE F F F
WIDTH 808
HEIGHT 1
POINTS 808
DATA ascii
-7.2931809425354 1.8224509954452515 -0.3987085223197937
-7.221592426300049 1.8286837339401245 -0.3951070010662079
-7.223549842834473 1.8533495664596558 -0.39553070068359375
-7.291144847869873 1.8951243162155151 -0.39955592155456543
-7.200174331665039 1.8956493139266968 -0.39489516615867615
-7.047521114349365 1.8791524171829224 -0.3868447244167328
-7.045439720153809 1.902323603630066 -0.3870565593242645
-7.147311687469482 1.9539434909820557 -0.3929884731769562
-6.944805145263672 1.9220491647720337 -0.3821839392185211
-7.092584133148193 1.9869604110717773 -0.39065808057785034
-7.447539806365967 2.111654043197632 -0.4105723202228546
-7.4216718673706055 2.129530906677246 -0.40951305627822876
-7.269177436828613 2.1105167865753174 -0.4014626145362854
-6.787286758422852 1.9937456846237183 -0.3751927614212036
-6.803962707519531 2.0218873023986816 -0.3764638900756836
-6.832005500793457 2.0536000728607178 -0.37837058305740356
-6.6688313484191895 2.027416467666626 -0.3696845769882202
-6.624248504638672 2.0366203784942627 -0.3675660490989685
-7.067905426025391 2.197348117828369 -0.3925647735595703
-7.080021381378174 2.225529432296753 -0.39362403750419617
-7.000665187835693 2.2247772216796875 -0.3895988166332245
-7.0430803298950195 2.2626407146453857 -0.3923529088497162
-6.013978004455566 1.9529005289077759 -0.33536428213119507
-6.194944858551025 2.0547797679901123 -0.3461688160896301
-6.1581597328186035 2.064077854156494 -0.3444739878177643
-6.045712947845459 2.0475363731384277 -0.338542103767395
-6.092159748077393 2.084625482559204 -0.34150803089141846
-5.911922931671143 2.0437204837799072 -0.33176276087760925
-6.101568698883057 2.1307613849639893 -0.34277915954589844
-6.0157389640808105 2.1220176219940186 -0.3383302390575409
-5.952602386474609 2.1207962036132812 -0.33515241742134094
-5.701609134674072 2.0515825748443604 -0.32138195633888245
-5.725170135498047 2.080397129058838 -0.3230767846107483
-5.849852561950684 2.146531105041504 -0.33049166202545166
-5.7344584465026855 2.12465500831604 -0.3243478834629059
-5.772650241851807 2.1594529151916504 -0.32689014077186584
-5.582735061645508 2.1084272861480713 -0.31650930643081665
-5.516366958618164 2.103186845779419 -0.31311964988708496
-5.341980457305908 2.055943250656128 -0.3035862445831299
-5.264751434326172 2.0452351570129395 -0.2995610237121582
-5.3289570808410645 2.089467763900757 -0.3035862445831299
-5.307509422302246 2.100321054458618 -0.30273881554603577
-5.156214237213135 2.0592074394226074 -0.29447653889656067
-5.13490104675293 2.069422721862793 -0.29362910985946655
-4.976668357849121 2.0238521099090576 -0.2849431335926056
-5.203094959259033 2.135004997253418 -0.2982898950576782
-4.624319076538086 1.9145110845565796 -0.2654525935649872
-5.215378284454346 2.178431987762451 -0.29977288842201233
-5.282127857208252 2.2258267402648926 -0.30400994420051575
-5.13174295425415 2.1814677715301514 -0.29574766755104065
-5.044100284576416 2.1629457473754883 -0.291086882352829
-5.044612407684326 2.1819546222686768 -0.29151058197021484
-5.041393756866455 2.199388027191162 -0.29172244668006897
-4.975962162017822 2.189474582672119 -0.2883327901363373
-4.950803279876709 2.1969966888427734 -0.2872735261917114
-2.876636505126953 1.287384033203125 -0.1671525090932846
-2.868936777114868 1.2947725057601929 -0.16694065928459167
-2.857584238052368 1.3004695177078247 -0.16651694476604462
-2.8498542308807373 1.3077739477157593 -0.16630509495735168
-2.8421061038970947 1.3150440454483032 -0.16609324514865875
-2.837961196899414 1.3239657878875732 -0.16609324514865875
-2.837401866912842 1.3345757722854614 -0.16630509495735168
-2.833195447921753 1.3434826135635376 -0.16630509495735168
-2.828961133956909 1.3523762226104736 -0.16630509495735168
-2.828296422958374 1.3629919290542603 -0.16651694476604462
-2.824000597000122 1.3718699216842651 -0.16651694476604462
-2.8268513679504395 1.384249210357666 -0.16694065928459167
-2.8332343101501465 1.3984262943267822 -0.16757620871067047
-2.8574376106262207 1.421553134918213 -0.1692710518836975
-4.652569770812988 2.3328819274902344 -0.2760452628135681
-4.6273932456970215 2.3384780883789062 -0.27498599886894226
-4.609344959259033 2.347566604614258 -0.27435043454170227
-4.609055042266846 2.36568284034729 -0.2747741639614105
-4.665462493896484 2.413182258605957 -0.2785875201225281
-4.85621452331543 2.5312187671661377 -0.290451318025589
-5.003835678100586 2.6281862258911133 -0.29977288842201233
-4.988492488861084 2.640157699584961 -0.2993491590023041
-4.920257091522217 2.6238629817962646 -0.29574766755104065
-4.901434421539307 2.6336348056793213 -0.29511210322380066
-4.801806449890137 2.5995779037475586 -0.2896038889884949
-4.299176216125488 2.3449599742889404 -0.25973254442214966
-4.788878440856934 2.6316213607788086 -0.289815753698349
-4.770103931427002 2.64084792137146 -0.289180189371109
-4.740853786468506 2.6441457271575928 -0.28790906071662903
-4.690734386444092 2.6355485916137695 -0.28536683320999146
-4.689384460449219 2.6542062759399414 -0.2857905328273773
-4.677552223205566 2.6669483184814453 -0.2855786979198456
-1.9639531373977661 1.1279553174972534 -0.12012100219726562
-1.9638575315475464 1.1361193656921387 -0.12033285945653915
-1.956827163696289 1.1402729749679565 -0.12012100219726562
-1.956680178642273 1.148436427116394 -0.12033285945653915
-1.9599398374557495 1.1586430072784424 -0.12075656652450562
-1.9459936618804932 1.158664584159851 -0.12012100219726562
-1.9389184713363647 1.1627177000045776 -0.11990915238857269
-1.9489326477050781 1.1770639419555664 -0.12075656652450562
-1.9383997917175293 1.1790289878845215 -0.12033285945653915
-1.9380927085876465 1.1871988773345947 -0.12054470926523209
-1.9343531131744385 1.1932822465896606 -0.12054470926523209
-1.933988094329834 1.201460838317871 -0.12075656652450562
-1.9302036762237549 1.2075313329696655 -0.12075656652450562
-1.9264007806777954 1.213588833808899 -0.12075656652450562
-1.9225789308547974 1.2196344137191772 -0.12075656652450562
-1.9120049476623535 1.2213681936264038 -0.12033285945653915
-1.9081586599349976 1.2273685932159424 -0.12033285945653915
-1.9076457023620605 1.2355291843414307 -0.12054470926523209
-1.9037550687789917 1.2415157556533813 -0.12054470926523209
-1.8998456001281738 1.2474900484085083 -0.12054470926523209
-1.889252781867981 1.2490471601486206 -0.12012100219726562
-1.8919697999954224 1.2594026327133179 -0.12054470926523209
-1.8846853971481323 1.2631169557571411 -0.12033285945653915
-1.887330412864685 1.2734997272491455 -0.12075656652450562
-1.8800164461135864 1.2771775722503662 -0.12054470926523209
-1.8792915344238281 1.2853331565856934 -0.12075656652450562
-1.878534197807312 1.2934956550598145 -0.12096841633319855
-1.8777438402175903 1.3016670942306519 -0.12118027359247208
-1.88674795627594 1.316703200340271 -0.122027687728405
-1.882602334022522 1.3226237297058105 -0.122027687728405
-1.9827951192855835 1.4023394584655762 -0.12880700826644897
-2.079251527786255 1.4803792238235474 -0.13537447154521942
-2.1525089740753174 1.5427510738372803 -0.14045895636081696
-2.2221555709838867 1.603258728981018 -0.14533159136772156
-2.2332680225372314 1.6219679117202759 -0.1463908553123474
-2.234609842300415 1.633691430091858 -0.14681455492973328
-2.23590087890625 1.6454381942749023 -0.14723826944828033
-2.230720281600952 1.6524549722671509 -0.14723826944828033
-2.2287204265594482 1.6618422269821167 -0.14745011925697327
-2.220294237136841 1.6664373874664307 -0.14723826944828033
-2.211860418319702 1.6709973812103271 -0.1470264196395874
-2.2066001892089844 1.677937626838684 -0.1470264196395874
-2.1727702617645264 1.6630122661590576 -0.14511972665786743
-2.0093209743499756 1.547944188117981 -0.1345270574092865
-1.9886653423309326 1.5420105457305908 -0.13346777856349945
-1.9649173021316528 1.5335057973861694 -0.13219666481018066
-1.9600902795791626 1.539670705795288 -0.13219666481018066
-1.9646432399749756 1.553253412246704 -0.13283222913742065
-1.9660054445266724 1.5643916130065918 -0.13325592875480652
-1.9829057455062866 1.5880383253097534 -0.13473890721797943
-1.9685769081115723 1.586740493774414 -0.13410334289073944
-1.9821947813034058 1.6080154180526733 -0.13537447154521942
-2.150402545928955 1.7557018995285034 -0.14723826944828033
-2.3547351360321045 1.9348896741867065 -0.16164430975914001
-1.8776847124099731 1.55280339717865 -0.12923070788383484
-1.8881477117538452 1.5714715719223022 -0.1302899718284607
-1.7576549053192139 1.4722354412078857 -0.12160398066043854
-1.7499666213989258 1.4751760959625244 -0.12139212340116501
-1.748369812965393 1.4832501411437988 -0.12160398066043854
-1.7072478532791138 1.4576116800308228 -0.11906173825263977
-1.6966006755828857 1.4577622413635254 -0.11863803118467331
-1.692012906074524 1.4630848169326782 -0.11863803118467331
-1.684394359588623 1.4657714366912842 -0.11842617392539978
-1.694806456565857 1.4842137098312378 -0.11948544532060623
-1.6871387958526611 1.4868892431259155 -0.1192735880613327
-1.655563473701477 1.4683289527893066 -0.11736690998077393
-1.6479625701904297 1.4708627462387085 -0.1171550527215004
-1.6581918001174927 1.4893789291381836 -0.11821432411670685
-1.6505414247512817 1.4919021129608154 -0.11800246685743332
-1.6665306091308594 1.5158940553665161 -0.11948544532060623
-1.6558668613433838 1.51572847366333 -0.11906173825263977
-1.727482557296753 1.5912858247756958 -0.12456993013620377
-1.8279320001602173 1.6944628953933716 -0.13219666481018066
-1.8664124011993408 1.7410670518875122 -0.13537447154521942
-1.8725829124450684 1.7578569650650024 -0.13622188568115234
-1.855436086654663 1.7527596950531006 -0.13537447154521942
-1.7283296585083008 1.6429924964904785 -0.12647661566734314
-1.685636281967163 1.612519383430481 -0.12372251600027084
-1.692073106765747 1.6288875341415405 -0.12456993013620377
-1.7098994255065918 1.6564289331436157 -0.1262647658586502
-1.667503833770752 1.6255457401275635 -0.12351065874099731
-1.6595379114151 1.6279789209365845 -0.12329880893230438
-1.7396947145462036 1.7173689603805542 -0.1296544224023819
-1.7456254959106445 1.734086513519287 -0.13050183653831482
-1.7232197523117065 1.7226178646087646 -0.12923070788383484
-1.7318793535232544 1.742187738418579 -0.1302899718284607
-1.7797338962554932 1.801611304283142 -0.13431519269943237
-1.6929173469543457 1.72452974319458 -0.12817144393920898
-1.645652174949646 1.6869515180587769 -0.12499363720417023
-1.6431248188018799 1.6949809789657593 -0.12520548701286316
-1.6017653942108154 1.6627377271652222 -0.12245139479637146
-1.5827233791351318 1.653334379196167 -0.12139212340116501
-1.572015643119812 1.6525100469589233 -0.12096841633319855
-1.5613279342651367 1.6516355276107788 -0.12054470926523209
-1.5369877815246582 1.6361528635025024 -0.11906173825263977
-1.515485405921936 1.6234545707702637 -0.11779061704874039
-1.4940789937973022 1.6106367111206055 -0.116519495844841
-1.4863046407699585 1.6123853921890259 -0.11630763858556747
-1.473137378692627 1.6082109212875366 -0.11567208170890808
-1.4761443138122559 1.621692419052124 -0.11630763858556747
-1.463003396987915 1.617435336112976 -0.11567208170890808
-1.4499046802520752 1.6131110191345215 -0.11503651738166809
-1.4208827018737793 1.5908457040786743 -0.11312983185052872
-1.4317861795425415 1.6132268905639648 -0.1144009530544281
-1.3791543245315552 1.5637928247451782 -0.11058758944272995
-1.3347446918487549 1.5230573415756226 -0.10740979015827179
-1.311591386795044 1.50615656375885 -0.10592681169509888
-1.2781025171279907 1.4770435094833374 -0.10359641909599304
-1.270851492881775 1.4780230522155762 -0.10338456928730011
-1.2843648195266724 1.5032663345336914 -0.10486754029989243
-1.2589545249938965 1.4829339981079102 -0.10317271202802658
-1.2182320356369019 1.444137454032898 -0.10020676255226135
-1.2059916257858276 1.4387736320495605 -0.09957120567560196
-1.198909044265747 1.4394863843917847 -0.09935934841632843
-1.227487564086914 1.4832501411437988 -0.10211344808340073
-1.2684868574142456 1.5426342487335205 -0.10592681169509888
-1.2889072895050049 1.5775437355041504 -0.10804534703493118
-1.291497826576233 1.5908883810043335 -0.10868091136217117
-1.3241099119186401 1.6415739059448242 -0.11185871064662933
-1.326440453529358 1.6550761461257935 -0.11249427497386932
-1.2938636541366577 1.6248631477355957 -0.11016388237476349
-1.2887529134750366 1.6289197206497192 -0.11016388237476349
-1.2836295366287231 1.6329602003097534 -0.11016388237476349
-1.2588235139846802 1.6118006706237793 -0.10846905410289764
-1.2341641187667847 1.590501308441162 -0.1067742258310318
-1.2657430171966553 1.6418225765228271 -0.10995203256607056
-1.2775812149047852 1.6679880619049072 -0.11143500357866287
-1.2771728038787842 1.6783506870269775 -0.11185871064662933
-1.2959822416305542 1.7142177820205688 -0.11397724598646164
-1.2929896116256714 1.7214744091033936 -0.11418910324573517
-1.2302428483963013 1.648695945739746 -0.10910461843013763
-1.1846188306808472 1.5980021953582764 -0.10550310462713242
-1.1535377502441406 1.5663363933563232 -0.10317271202802658
-1.1108741760253906 1.5183733701705933 -0.09978305548429489
-1.0990536212921143 1.512162208557129 -0.0991474986076355
-1.0989737510681152 1.5220849514007568 -0.09957120567560196
-1.1058270931243896 1.54175865650177 -0.10063046962022781
-1.1867387294769287 1.6655898094177246 -0.10846905410289764
-1.2068836688995361 1.705174207687378 -0.11079944670200348
-1.298010230064392 1.8461964130401611 -0.11969729512929916
-1.3448063135147095 1.9255861043930054 -0.12456993013620377
-1.2954916954040527 1.867443561553955 -0.12054470926523209
-1.2692207098007202 1.8419021368026733 -0.11863803118467331
-1.25214684009552 1.829399824142456 -0.11757875978946686
-1.2082159519195557 1.7771682739257812 -0.11397724598646164
-1.1892141103744507 1.7610934972763062 -0.11270612478256226
-1.1770011186599731 1.7548686265945435 -0.11207056790590286
-1.169268012046814 1.7552332878112793 -0.11185871064662933
-1.1571353673934937 1.7489045858383179 -0.11122315376996994
-1.1340868473052979 1.725825548171997 -0.1095283254981041
-1.1177434921264648 1.7126551866531372 -0.10846905410289764
-1.1014951467514038 1.6993986368179321 -0.10740979015827179
-1.0745307207107544 1.6692637205123901 -0.10529124736785889
-1.0542205572128296 1.6490733623504639 -0.10380827635526657
-1.0490349531173706 1.6523768901824951 -0.10380827635526657
-1.0587509870529175 1.6793164014816284 -0.10529124736785889
-1.059828519821167 1.69279146194458 -0.10592681169509888
-1.043960452079773 1.679151177406311 -0.10486754029989243
-1.0491714477539062 1.699417233467102 -0.10592681169509888
-1.0542658567428589 1.7197316884994507 -0.10698608309030533
-1.0405505895614624 1.7093874216079712 -0.1061386689543724
-1.0269099473953247 1.6989742517471313 -0.10529124736785889
-1.021567702293396 1.7021918296813965 -0.10529124736785889
-1.005990982055664 1.688236117362976 -0.10423198342323303
-1.0027166604995728 1.6948258876800537 -0.10444383323192596
-1.0075030326843262 1.7151881456375122 -0.10550310462713242
-1.008146047592163 1.7286967039108276 -0.1061386689543724
-1.0067132711410522 1.7387686967849731 -0.10656237602233887
-1.0092074871063232 1.7557754516601562 -0.10740979015827179
-1.0017073154449463 1.7554676532745361 -0.10719793289899826
-0.9863439798355103 1.7412283420562744 -0.1061386689543724
-0.9789105653762817 1.7408370971679688 -0.10592681169509888
-0.975383996963501 1.7473914623260498 -0.1061386689543724
-0.9660172462463379 1.7434595823287964 -0.10571495443582535
-0.962460458278656 1.7499854564666748 -0.10592681169509888
-0.9569583535194397 1.753000259399414 -0.10592681169509888
-0.9514458775520325 1.7559983730316162 -0.10592681169509888
-0.9326820373535156 1.7343528270721436 -0.10444383323192596
-0.9215859174728394 1.7267029285430908 -0.10380827635526657
-0.9142873287200928 1.7260596752166748 -0.10359641909599304
-0.9385983347892761 1.7854933738708496 -0.10698608309030533
-0.9440688490867615 1.8096822500228882 -0.10825720429420471
-0.9549064636230469 1.8445640802383423 -0.11016388237476349
-1.0038625001907349 1.9541449546813965 -0.116519495844841
-1.0049749612808228 1.9715237617492676 -0.11736690998077393
-1.0168051719665527 2.01031494140625 -0.11948544532060623
-1.0373586416244507 2.0670502185821533 -0.12266324460506439
-1.0575662851333618 2.1239335536956787 -0.12584105134010315
-1.0314269065856934 2.0878522396087646 -0.12351065874099731
-0.9422412514686584 1.9225043058395386 -0.11355353891849518
-0.9606501460075378 1.975746512413025 -0.116519495844841
-1.0984712839126587 2.277367115020752 -0.13410334289073944
-0.8637396097183228 1.8051882982254028 -0.1061386689543724
-0.8495001196861267 1.7898502349853516 -0.10507939755916595
-0.8438733220100403 1.7925100326538086 -0.10507939755916595
-0.8348581194877625 1.7879135608673096 -0.1046556904911995
-0.8325938582420349 1.7977769374847412 -0.10507939755916595
-0.8169388771057129 1.7786046266555786 -0.10380827635526657
-0.8130025267601013 1.7847975492477417 -0.1040201261639595
-0.8123248815536499 1.798263430595398 -0.1046556904911995
-0.8001400828361511 1.7862249612808228 -0.10380827635526657
-0.7912810444831848 1.7814290523529053 -0.10338456928730011
-0.7905110120773315 1.7948726415634155 -0.1040201261639595
-0.7768752574920654 1.7790446281433105 -0.10296086221933365
-0.7474777698516846 1.7264925241470337 -0.09978305548429489
-0.7247202396392822 1.6884559392929077 -0.09745267033576965
-0.7115919589996338 1.6723471879959106 -0.0963933989405632
-0.6783920526504517 1.6083273887634277 -0.09258003532886505
-0.653304934501648 1.5625426769256592 -0.08982593566179276
-0.6392177939414978 1.5424468517303467 -0.08855481445789337
-0.6298162937164307 1.5333627462387085 -0.08791925013065338
-0.6249955296516418 1.5353339910507202 -0.08791925013065338
-0.6186749935150146 1.533585548400879 -0.08770740032196045
-0.6168190836906433 1.5429397821426392 -0.08813110738992691
-0.6207955479621887 1.5671515464782715 -0.0894022285938263
-0.6406793594360352 1.6323039531707764 -0.09300374239683151
-0.6920086145401001 1.7794979810714722 -0.1012660339474678
-0.7122634649276733 1.8487550020217896 -0.10507939755916595
-0.7121485471725464 1.8659110069274902 -0.10592681169509888
-0.704870879650116 1.8644027709960938 -0.10571495443582535
-0.6990105509757996 1.8666077852249146 -0.10571495443582535
-0.6889752745628357 1.8575595617294312 -0.10507939755916595
-0.6803819537162781 1.8522157669067383 -0.1046556904911995
-0.6800211668014526 1.8693592548370361 -0.10550310462713242
-0.7052806615829468 1.9579203128814697 -0.11037573963403702
-0.7138873338699341 2.0015108585357666 -0.11270612478256226
-0.7115855813026428 2.015043258666992 -0.11334168910980225
-0.7078884840011597 2.0248098373413086 -0.11376539617776871
-0.7015242576599121 2.0270237922668457 -0.11376539617776871
-0.7016246914863586 2.0481116771698 -0.11482466757297516
-0.6951872706413269 2.0503058433532715 -0.11482466757297516
-0.6633272171020508 1.9767426252365112 -0.11058758944272995
-0.638231635093689 1.9219540357589722 -0.10740979015827179
-0.06484008580446243 0.19732815027236938 -0.011016388423740864
-0.060514796525239944 0.18613488972187042 -0.010380827821791172
-0.0648219957947731 0.2015341818332672 -0.011228241957724094
-0.6394626498222351 2.009755849838257 -0.11185871064662933
-0.6319469213485718 2.0079445838928223 -0.1116468608379364
-0.6446307301521301 2.0709424018859863 -0.11503651738166809
-0.6428214907646179 2.0882277488708496 -0.11588393151760101
-0.04420077055692673 0.14520840346813202 -0.008050438016653061
-0.6170251965522766 2.0501515865325928 -0.11355353891849518
-0.05012238770723343 0.16845430433750153 -0.009321559220552444
-0.05297429487109184 0.18010711669921875 -0.00995712075382471
-0.05686843395233154 0.1956150382757187 -0.010804534889757633
-0.05404762178659439 0.18811456859111786 -0.010380827821791172
-0.056729160249233246 0.19981101155281067 -0.011016388423740864
-0.04962797835469246 0.17691266536712646 -0.009745266288518906
-0.05120554193854332 0.18476629257202148 -0.010168974287807941
-0.04746072739362717 0.17336837947368622 -0.009533412754535675
-0.04691587761044502 0.17351661622524261 -0.009533412754535675
-0.04430956766009331 0.16594479978084564 -0.009109705686569214
-0.039714742451906204 0.1506335735321045 -0.008262291550636292
-0.041253719478845596 0.15848875045776367 -0.008685998618602753
-0.041749607771635056 0.16248629987239838 -0.008897852152585983
-0.040257085114717484 0.15874481201171875 -0.008685998618602753
-0.03878842294216156 0.1549956500530243 -0.008474145084619522
-0.03925885632634163 0.1589946299791336 -0.008685998618602753
-0.038759198039770126 0.1591171771287918 -0.008685998618602753
-0.034526485949754715 0.14370273053646088 -0.00783858448266983
-0.03683772310614586 0.1554708182811737 -0.008474145084619522
-0.035440340638160706 0.1516961306333542 -0.008262291550636292
-0.03496363013982773 0.15180671215057373 -0.008262291550636292
-0.03360230103135109 0.14802052080631256 -0.008050438016653061
-0.03575315698981285 0.15981946885585785 -0.008685998618602753
-0.03181180730462074 0.14432796835899353 -0.00783858448266983
-0.03390074893832207 0.15613752603530884 -0.008474145084619522
-0.032574839890003204 0.1523371785879135 -0.008262291550636292
-0.03209612891077995 0.15243875980377197 -0.008262291550636292
-0.02837425097823143 0.13689382374286652 -0.007414876949042082
-0.028742477297782898 0.14089608192443848 -0.007626730483025312
-0.029871858656406403 0.1488182246685028 -0.008050438016653061
-0.028630418702960014 0.14499260485172272 -0.00783858448266983
-0.029697762802243233 0.1529240906238556 -0.008262291550636292
-0.027718830853700638 0.14516963064670563 -0.00783858448266983
-0.02726265788078308 0.14525598287582397 -0.00783858448266983
-0.028255131095647812 0.15319719910621643 -0.008262291550636292
-0.02848588488996029 0.15721559524536133 -0.008474145084619522
-0.027292070910334587 0.1533716917037964 -0.008262291550636292
-0.02474774792790413 0.14165233075618744 -0.007626730483025312
-0.024302640929818153 0.14172936975955963 -0.007626730483025312
-0.02518262341618538 0.14968307316303253 -0.008050438016653061
-0.02471228502690792 0.14976145327091217 -0.008050438016653061
-0.023603765293955803 0.14589522778987885 -0.00783858448266983
-0.023770812898874283 0.14991377294063568 -0.008050438016653061
-0.022073453292250633 0.14209361374378204 -0.007626730483025312
-0.021626904606819153 0.1421622633934021 -0.007626730483025312
-0.02235688641667366 0.15013113617897034 -0.008050438016653061
-0.02246107906103134 0.15415328741073608 -0.008262291550636292
-0.021413134410977364 0.15026864409446716 -0.008050438016653061
-0.019838819280266762 0.14242279529571533 -0.007626730483025312
-0.01992989145219326 0.14644232392311096 -0.00783858448266983
-0.01946975849568844 0.146504208445549 -0.00783858448266983
-0.019009435549378395 0.14656464755535126 -0.00783858448266983
-0.01955149509012699 0.1545492559671402 -0.008262291550636292
-0.018577028065919876 0.15064555406570435 -0.008050438016653061
-0.018103627488017082 0.15070317685604095 -0.008050438016653061
-0.016238268464803696 0.13885724544525146 -0.007414876949042082
-0.01625346764922142 0.14287637174129486 -0.007626730483025312
-0.017121529206633568 0.15483729541301727 -0.008262291550636292
-0.01663503795862198 0.15489031374454498 -0.008262291550636292
-0.016148384660482407 0.15494181215763092 -0.008262291550636292
-0.01606307365000248 0.15896593034267426 -0.008474145084619522
-0.01517452858388424 0.1550402045249939 -0.008262291550636292
-0.014310738071799278 0.15111052989959717 -0.008050438016653061
-0.013835969381034374 0.15115474164485931 -0.008050438016653061
-0.013009456917643547 0.14721857011318207 -0.00783858448266983
-0.012546849437057972 0.1472587138414383 -0.00783858448266983
-0.012084189802408218 0.14729739725589752 -0.00783858448266983
-0.011935430578887463 0.15131667256355286 -0.008050438016653061
-0.011158445850014687 0.14737042784690857 -0.00783858448266983
-0.01069544069468975 0.147404745221138 -0.00783858448266983
-0.010508809238672256 0.1514224261045456 -0.008050438016653061
-0.010297107510268688 0.1554403454065323 -0.008262291550636292
-0.009305673651397228 0.14749900996685028 -0.00783858448266983
-0.009320234879851341 0.15550199151039124 -0.008262291550636292
-0.008378787897527218 0.14755456149578094 -0.00783858448266983
-0.007915148511528969 0.14758016169071198 -0.00783858448266983
-0.0074515012092888355 0.147604301571846 -0.00783858448266983
-0.0069877104833722115 0.14762698113918304 -0.00783858448266983
-0.006876565515995026 0.15562918782234192 -0.008262291550636292
-0.005896281450986862 0.14367695152759552 -0.007626730483025312
-0.005293591879308224 0.13970324397087097 -0.007414876949042082
-0.005132113583385944 0.1477031409740448 -0.00783858448266983
-0.004541861359030008 0.1437261402606964 -0.007626730483025312
-0.004203957971185446 0.1477324664592743 -0.00783858448266983
-0.0038409277331084013 0.15173804759979248 -0.008050438016653061
-0.0033641669433563948 0.1517493724822998 -0.008050438016653061
-0.002963430481031537 0.15575285255908966 -0.008262291550636292
-0.002347185043618083 0.1477736234664917 -0.00783858448266983
-0.001933848368935287 0.1517743319272995 -0.008050438016653061
-0.0013803682522848248 0.14379125833511353 -0.007626730483025312
-0.000980175333097577 0.15178348124027252 -0.008050438016653061
-0.0004638225072994828 0.14763350784778595 -0.0103986831381917
0.0 0.14763423800468445 -0.0103986831381917
0.00043803892913274467 0.14763358235359192 -0.0103986831381917
0.00090184056898579 0.1476314812898636 -0.0103986831381917
0.001365633332170546 0.14762791991233826 -0.0103986831381917
0.0018294125329703093 0.14762289822101593 -0.0103986831381917
0.0024171292316168547 0.15559569001197815 -0.0109607744961977
0.0026078904047608376 0.13962964713573456 -0.009836592711508274
0.0032206238247454166 0.14759910106658936 -0.0103986831381917
0.003684303490445018 0.14758825302124023 -0.0103986831381917
0.004372160416096449 0.15555302798748016 -0.0109607744961977
0.004985458217561245 0.15952669084072113 -0.011241819709539413
0.005486601497977972 0.15951023995876312 -0.011241819709539413
0.005837996490299702 0.15550491213798523 -0.0109607744961977
0.006002064328640699 0.14751218259334564 -0.0103986831381917
0.006640199571847916 0.15147888660430908 -0.010679729282855988
0.00711605092510581 0.151457279920578 -0.010679729282855988
0.007192262448370457 0.14346395432949066 -0.010117637924849987
0.008067538030445576 0.1514095813035965 -0.010679729282855988
0.007868705317378044 0.1394321620464325 -0.009836592711508274
0.00901870708912611 0.15135589241981506 -0.010679729282855988
0.009244313463568687 0.14734452962875366 -0.0103986831381917
0.009444809518754482 0.1433332860469818 -0.010117637924849987
0.010169918648898602 0.14728353917598724 -0.0103986831381917
0.011207305826246738 0.15521036088466644 -0.0109607744961977
0.012294594198465347 0.16313205659389496 -0.011522864922881126
0.10932827740907669 1.392254114151001 -0.09836592525243759
0.012019886635243893 0.1471441090106964 -0.0103986831381917
0.012144739739596844 0.14312979578971863 -0.010117637924849987
0.01294417679309845 0.1470656841993332 -0.0103986831381917
0.013406133279204369 0.14702430367469788 -0.0103986831381917
0.014617575332522392 0.1549263894557953 -0.0109607744961977
0.01471693068742752 0.1509084403514862 -0.010679729282855988
0.01519094966351986 0.150861456990242 -0.010679729282855988
0.14180783927440643 1.3652544021606445 -0.09667965024709702
0.013165646232664585 0.12299089133739471 -0.008712409995496273
0.015300610102713108 0.1388133019208908 -0.009836592711508274
0.15421895682811737 1.3598926067352295 -0.09639860689640045
0.15849041938781738 1.3594013452529907 -0.09639860689640045
0.16228577494621277 1.3549349308013916 -0.09611755609512329
0.16654163599014282 1.354418396949768 -0.09611755609512329
0.17029644548892975 1.3499298095703125 -0.09583651274442673
0.17453652620315552 1.3493881225585938 -0.09583651274442673
0.17929913103580475 1.3527886867523193 -0.09611755609512329
0.18193809688091278 1.3403571844100952 -0.0952744260430336
0.18669715523719788 1.3437310457229614 -0.09555546939373016
0.19091765582561493 1.3431379795074463 -0.09555546939373016
0.19513630867004395 1.3425315618515015 -0.09555546939373016
0.19935303926467896 1.3419119119644165 -0.09555546939373016
0.20356778800487518 1.3412789106369019 -0.09555546939373016
0.20778052508831024 1.3406327962875366 -0.09555546939373016
0.2107442170381546 1.332091212272644 -0.09499337524175644
0.21429219841957092 1.3274835348129272 -0.09471233189105988
0.2197580188512802 1.3346779346466064 -0.0952744260430336
0.22328932583332062 1.3300458192825317 -0.09499337524175644
0.226120725274086 1.321471929550171 -0.09443128854036331
0.23095647990703583 1.3246859312057495 -0.09471233189105988
0.23581460118293762 1.3278824090957642 -0.09499337524175644
0.24069513380527496 1.3310614824295044 -0.0952744260430336
0.24343089759349823 1.3224503993988037 -0.09471233189105988
0.24905361235141754 1.329522967338562 -0.0952744260430336
0.25248223543167114 1.3248143196105957 -0.09499337524175644
0.25588372349739075 1.3200974464416504 -0.09471233189105988
0.2592580318450928 1.3153722286224365 -0.09443128854036331
0.2641730010509491 1.3184635639190674 -0.09471233189105988
0.26910996437072754 1.3215370178222656 -0.09499337524175644
0.27164342999458313 1.3128703832626343 -0.09443128854036331
0.2757665514945984 1.3120105266571045 -0.09443128854036331
0.27988702058792114 1.3111376762390137 -0.09443128854036331
0.283159464597702 1.3063523769378662 -0.09415023773908615
0.28726208209991455 1.3054563999176025 -0.09415023773908615
0.29049211740493774 1.3006532192230225 -0.09386919438838959
0.2936948239803314 1.2958427667617798 -0.09358815103769302
0.2986585795879364 1.298802375793457 -0.09386919438838959
0.3009245991706848 1.2900861501693726 -0.09330710768699646
0.30497604608535767 1.2891343832015991 -0.09330710768699646
0.3080936372280121 1.2842897176742554 -0.0930260568857193
0.31212684512138367 1.2833155393600464 -0.0930260568857193
0.3171120882034302 1.2862027883529663 -0.09330710768699646
0.3201839327812195 1.2813291549682617 -0.0930260568857193
0.32420775294303894 1.2803168296813965 -0.0930260568857193
0.3282283544540405 1.279292106628418 -0.0930260568857193
0.33124205470085144 1.27439284324646 -0.09274501353502274
0.3362599015235901 1.2772045135498047 -0.0930260568857193
0.3412986993789673 1.2799972295761108 -0.09330710768699646
0.34219786524772644 1.2673622369766235 -0.09246397018432617
0.34617769718170166 1.2662808895111084 -0.09246397018432617
0.3501541018486023 1.26518714427948 -0.09246397018432617
0.35197436809539795 1.2563964128494263 -0.09190187603235245
0.3548312783241272 1.2514457702636719 -0.09162083268165588
0.3587610423564911 1.2503248453140259 -0.09162083268165588
0.3615747094154358 1.2453596591949463 -0.09133978933095932
0.3643608093261719 1.2403892278671265 -0.09105873852968216
0.3705289363861084 1.2468881607055664 -0.09162083268165588
0.37214717268943787 1.2380753755569458 -0.09105873852968216
0.37835603952407837 1.2445354461669922 -0.09162083268165588
0.3799188435077667 1.2357127666473389 -0.09105873852968216
0.3837990164756775 1.2345130443572998 -0.09105873852968216
0.3876754641532898 1.2333012819290161 -0.09105873852968216
0.39154812693595886 1.2320772409439087 -0.09105873852968216
0.39297598600387573 1.2232433557510376 -0.09049665182828903
0.3955846130847931 1.218207597732544 -0.09021560102701187
0.3981655240058899 1.2131677865982056 -0.08993455767631531
0.4032309651374817 1.215698003768921 -0.09021560102701187
0.40704819560050964 1.2144252061843872 -0.09021560102701187
0.4121413826942444 1.2169197797775269 -0.09049665182828903
0.41208696365356445 1.2042933702468872 -0.08965351432561874
0.41717198491096497 1.2067639827728271 -0.08993455767631531
0.4196455478668213 1.201680302619934 -0.08965351432561874
0.42341867089271545 1.200356125831604 -0.08965351432561874
0.42718762159347534 1.1990199089050293 -0.08965351432561874
0.4309523403644562 1.1976720094680786 -0.08965351432561874
0.4333500564098358 1.1925619840621948 -0.08937247097492218
0.43709447979927063 1.191194772720337 -0.08937247097492218
0.4394482672214508 1.186074137687683 -0.08909142017364502
0.44457030296325684 1.1884249448776245 -0.08937247097492218
0.44548213481903076 1.1795568466186523 -0.08881037682294846
0.4506070613861084 1.1818797588348389 -0.08909142017364502
0.4543178379535675 1.1804583072662354 -0.08909142017364502
0.45513439178466797 1.1715866327285767 -0.08852933347225189
0.46026933193206787 1.173865795135498 -0.08881037682294846
0.461018443107605 1.1649936437606812 -0.08824828267097473
0.4661559462547302 1.1672450304031372 -0.08852933347225189
0.46982061862945557 1.1657748222351074 -0.08852933347225189
0.4704744815826416 1.1569007635116577 -0.08796723932027817
0.4771360754966736 1.1627998352050781 -0.08852933347225189
0.47773414850234985 1.1539218425750732 -0.08796723932027817
0.4828948378562927 1.1560972929000854 -0.08824828267097473
0.48652443289756775 1.1545745134353638 -0.08824828267097473
0.48858821392059326 1.149368166923523 -0.08796723932027817
0.49376922845840454 1.1514947414398193 -0.08824828267097473
0.4926321804523468 1.1389511823654175 -0.08740515261888504
0.4993989169597626 1.1447123289108276 -0.08796723932027817
0.499778687953949 1.1358333826065063 -0.08740515261888504
0.5049629807472229 1.1379048824310303 -0.0876861959695816
0.5101652145385742 1.1399548053741455 -0.08796723932027817
0.5104612708091736 1.1310726404190063 -0.08740515261888504
0.5140120983123779 1.12946355342865 -0.08740515261888504
0.5175579190254211 1.1278431415557861 -0.08740515261888504
0.5177474617958069 1.1189690828323364 -0.08684305846691132
0.5263210535049438 1.1281850337982178 -0.0876861959695816
0.5247678756713867 1.1156938076019287 -0.08684305846691132
0.5282703042030334 1.1140397787094116 -0.08684305846691132
0.5317675471305847 1.1123746633529663 -0.08684305846691132
0.5352596044540405 1.1106985807418823 -0.08684305846691132
0.5387462973594666 1.1090115308761597 -0.08684305846691132
0.5387181043624878 1.1001465320587158 -0.08628096431493759
0.5439377427101135 1.1020267009735107 -0.08656201511621475
0.5456198453903198 1.0967398881912231 -0.08628096431493759
0.5508511662483215 1.0985872745513916 -0.08656201511621475
0.5542997717857361 1.0968513488769531 -0.08656201511621475
0.5577428936958313 1.0951045751571655 -0.08656201511621475
0.5593584775924683 1.089797019958496 -0.08628096431493759
0.5609462857246399 1.084490418434143 -0.08599992096424103
0.5643504858016968 1.082722783088684 -0.08599992096424103
0.5696045756340027 1.0844769477844238 -0.08628096431493759
0.5711422562599182 1.079155445098877 -0.08599992096424103
0.5745297074317932 1.0773558616638184 -0.08599992096424103
0.5779114961624146 1.0755455493927002 -0.08599992096424103
0.5812875628471375 1.0737247467041016 -0.08599992096424103
0.5846579074859619 1.0718932151794434 -0.08599992096424103
0.5861007571220398 1.066554307937622 -0.08571887761354446
0.5894486308097839 1.064707636833191 -0.08571887761354446
0.5908470153808594 1.05936598777771 -0.0854378342628479
0.5961266756057739 1.0609831809997559 -0.08571887761354446
0.5955260396003723 1.0521601438522339 -0.08515678346157074
0.59685218334198 1.0468177795410156 -0.08487574011087418
0.6080867648124695 1.0587778091430664 -0.08599992096424103
0.6074138879776001 1.0499546527862549 -0.0854378342628479
0.6127183437347412 1.0514886379241943 -0.08571887761354446
0.6139988899230957 1.0461174249649048 -0.0854378342628479
0.6172823309898376 1.044183373451233 -0.0854378342628479
0.6205596923828125 1.0422389507293701 -0.0854378342628479
0.6217788457870483 1.0368622541427612 -0.08515678346157074
0.6209075450897217 1.028072714805603 -0.08459469676017761
0.6241342425346375 1.026116967201233 -0.08459469676017761
0.6315232515335083 1.0309561491012573 -0.08515678346157074
0.6347589492797852 1.0289671421051025 -0.08515678346157074
0.6358829140663147 1.0235786437988281 -0.08487574011087418
0.6369792222976685 1.0181931257247925 -0.08459469676017761
0.6401748061180115 1.0161869525909424 -0.08459469676017761
0.6455014944076538 1.0175402164459229 -0.08487574011087418
0.6486950516700745 1.0155072212219238 -0.08487574011087418
0.6475650072097778 1.006752610206604 -0.08431364595890045
0.6507245898246765 1.0047132968902588 -0.08431364595890045
0.6516982316970825 0.999321699142456 -0.08403260260820389
0.6526443958282471 0.9939340949058533 -0.08375155925750732
0.6557636857032776 0.991878867149353 -0.08375155925750732
0.6588765382766724 0.9898138046264648 -0.08375155925750732
0.6642042398452759 0.9910535216331482 -0.08403260260820389
0.6606190800666809 0.9790393710136414 -0.0831894651055336
0.6659336686134338 0.9802595973014832 -0.08347051590681076
0.6690099835395813 0.9781626462936401 -0.08347051590681076
0.6720796227455139 0.9760560989379883 -0.08347051590681076
0.6774159073829651 0.9772192239761353 -0.08375155925750732
0.6804825663566589 0.9750862717628479 -0.08375155925750732
0.6835426092147827 0.9729436039924622 -0.08375155925750732
0.68889981508255 0.9740490317344666 -0.08403260260820389
0.6873279809951782 0.9653791785240173 -0.08347051590681076
0.695006251335144 0.9697014093399048 -0.08403260260820389
0.6957146525382996 0.9642773866653442 -0.08375155925750732
0.7010853290557861 0.9653154015541077 -0.08403260260820389
0.7017596364021301 0.9598870873451233 -0.08375155925750732
0.7024067044258118 0.9544639587402344 -0.08347051590681076
0.7054017186164856 0.9522525668144226 -0.08347051590681076
0.7083898782730103 0.9500318169593811 -0.08347051590681076
0.71616131067276 0.9541841149330139 -0.08403260260820389
0.7167502641677856 0.9487459063529968 -0.08375155925750732
0.7148969173431396 0.9401371479034424 -0.0831894651055336
0.7202720642089844 0.9410551190376282 -0.08347051590681076
0.7207898497581482 0.9356268644332886 -0.0831894651055336
0.7286156415939331 0.9396643042564392 -0.08375155925750732
0.7315640449523926 0.9373705983161926 -0.08375155925750732
0.7295758128166199 0.9287921190261841 -0.0831894651055336
0.7374392747879028 0.9327555894851685 -0.08375155925750732
0.7378815412521362 0.9273119568824768 -0.08347051590681076
0.7407911419868469 0.9249892234802246 -0.08347051590681076
0.7461974620819092 0.9257640838623047 -0.08375155925750732
0.746588408946991 0.9203165173530579 -0.08347051590681076
0.7519993782043457 0.9210572838783264 -0.08375155925750732
0.7523561120033264 0.9156073927879333 -0.08347051590681076
0.7603145837783813 0.919389009475708 -0.08403260260820389
0.758094072341919 0.9108622074127197 -0.08347051590681076
0.7635141015052795 0.9115349650382996 -0.08375155925750732
0.7638022899627686 0.906080961227417 -0.08347051590681076
0.7666450142860413 0.9036769270896912 -0.08347051590681076
0.7746618390083313 0.9073331356048584 -0.08403260260820389
0.774908185005188 0.9018686413764954 -0.08375155925750732
0.7777376174926758 0.8994297385215759 -0.08375155925750732
0.7779401540756226 0.893971860408783 -0.08347051590681076
0.7807447910308838 0.8915234804153442 -0.08347051590681076
0.7861799001693726 0.8920599222183228 -0.08375155925750732
0.7889785170555115 0.8895856738090515 -0.08375155925750732
0.7864553928375244 0.8811489343643188 -0.0831894651055336
0.7892197966575623 0.8786738514900208 -0.0831894651055336
0.7946519255638123 0.8791500926017761 -0.08347051590681076
0.8000948429107666 0.8796010613441467 -0.08375155925750732
0.8028542399406433 0.8770831227302551 -0.08375155925750732
0.8056056499481201 0.8745566010475159 -0.08375155925750732
0.8056365251541138 0.8690950870513916 -0.08347051590681076
0.8056411743164062 0.8636422157287598 -0.0831894651055336
0.8110813498497009 0.8640159964561462 -0.08347051590681076
0.8110516667366028 0.8585631251335144 -0.0831894651055336
0.8192431926727295 0.8617948293685913 -0.08375155925750732
0.8191883563995361 0.8563334941864014 -0.08347051590681076
0.8191073536872864 0.8508811593055725 -0.0831894651055336
0.8245526552200317 0.8511694669723511 -0.08347051590681076
0.8244373798370361 0.8457177877426147 -0.0831894651055336
0.8298843502998352 0.845971941947937 -0.08347051590681076
0.8297348618507385 0.8405210375785828 -0.0831894651055336
0.8323713541030884 0.8379102349281311 -0.0831894651055336
0.8349995613098145 0.8352911472320557 -0.0831894651055336
0.8404493927955627 0.8354767560958862 -0.08347051590681076
0.8402313590049744 0.830028235912323 -0.0831894651055336
0.8456821441650391 0.8301796317100525 -0.08347051590681076
0.8454299569129944 0.8247324824333191 -0.0831894651055336
0.8480167388916016 0.822072446346283 -0.0831894651055336
0.850595235824585 0.8194042444229126 -0.0831894651055336
0.8502828478813171 0.8139687776565552 -0.08290842175483704
0.8557268381118774 0.8140437006950378 -0.0831894651055336
0.8582800030708313 0.8113513588905334 -0.0831894651055336
0.8579164147377014 0.8059189915657043 -0.08290842175483704
0.8575273752212524 0.8004971146583557 -0.08262737840414047
0.8658885955810547 0.8032262921333313 -0.0831894651055336
0.8684077262878418 0.8005021214485168 -0.0831894651055336
0.8650336861610413 0.7923796772956848 -0.08262737840414047
0.8793217539787292 0.8004018068313599 -0.08375155925750732
0.8759136199951172 0.7922821640968323 -0.0831894651055336
0.8783982992172241 0.7895265221595764 -0.0831894651055336
0.874922513961792 0.7814469933509827 -0.08262737840414047
0.8743888139724731 0.7760459184646606 -0.08234632760286331
0.8798151612281799 0.7759343385696411 -0.08262737840414047
0.8882501125335693 0.7784261703491211 -0.0831894651055336
0.8937002420425415 0.778252124786377 -0.08347051590681076
0.9082100987434387 0.7858842015266418 -0.08459469676017761
0.9258020520210266 0.7960342764854431 -0.08599992096424103
0.9434664845466614 0.8060813546180725 -0.08740515261888504
0.9551196694374084 0.8108605146408081 -0.08824828267097473
0.9729116559028625 0.8207197785377502 -0.08965351432561874
0.9693693518638611 0.812532901763916 -0.08909142017364502
0.9933791160583496 0.827358603477478 -0.09105873852968216
1.0021214485168457 0.829321563243866 -0.09162083268165588
1.0108857154846191 0.83123779296875 -0.09218291938304901
1.0196720361709595 0.8331069946289062 -0.09274501353502274
1.0191863775253296 0.8273846507072449 -0.09246397018432617
1.0217807292938232 0.8241785764694214 -0.09246397018432617
1.027478575706482 0.8234599232673645 -0.09274501353502274
1.0238176584243774 0.8152568936347961 -0.09218291938304901
1.0263737440109253 0.8120365142822266 -0.09218291938304901
1.0320566892623901 0.8112739324569702 -0.09246397018432617
20.956159591674805 16.366857528686523 -1.872887134552002
20.97910499572754 16.2789249420166 -1.8703577518463135
20.9985408782959 16.188575744628906 -1.8675472736358643
20.716686248779297 15.867769241333008 -1.8380374908447266
20.50923728942871 15.606887817382812 -1.8152728080749512
20.567712783813477 15.549596786499023 -1.8161159753799438
20.635604858398438 15.499283790588379 -1.8178023099899292
19.50096321105957 14.551459312438965 -1.713815450668335
19.210012435913086 14.240621566772461 -1.6843056678771973
18.952648162841797 13.957785606384277 -1.65788733959198
18.67437744140625 13.662572860717773 -1.629782795906067
18.42026138305664 13.388015747070312 -1.603926658630371
18.180784225463867 13.126870155334473 -1.5794756412506104
17.943092346191406 12.86968994140625 -1.5553057193756104
17.7884578704834 12.674335479736328 -1.5384430885314941
17.831443786621094 12.620694160461426 -1.5387240648269653
17.89385414123535 12.58067798614502 -1.5406913757324219
17.06639289855957 11.918971061706543 -1.4662142992019653
16.952943801879883 11.760675430297852 -1.4532862901687622
6.6697564125061035 4.596004486083984 -0.5705223679542542
6.638064861297607 4.543476104736328 -0.5665877461433411
6.6259074211120605 4.504652976989746 -0.5643393397331238
6.620185852050781 4.470417022705078 -0.5626530647277832
6.637511253356934 4.45181941986084 -0.5629341006278992
6.648143291473389 4.428732872009277 -0.5626530647277832
6.668679714202881 4.412229061126709 -0.5632151961326599
6.689176559448242 4.395639419555664 -0.5637772679328918
6.709636211395264 4.378964424133301 -0.5643393397331238
6.746798038482666 4.373056411743164 -0.5663066506385803
6.790698528289795 4.371275901794434 -0.5688360929489136
22.786664962768555 14.56707763671875 -1.9049264192581177
22.81884002685547 14.486865997314453 -1.9038021564483643
22.884490966796875 14.427874565124512 -1.9054884910583496
22.916179656982422 14.347437858581543 -1.9043642282485962
23.708988189697266 13.727039337158203 -1.9296584129333496
23.86615562438965 13.718104362487793 -1.9389328956604004
23.850217819213867 13.609442710876465 -1.9341551065444946
23.740097045898438 13.447915077209473 -1.9217890501022339
23.639631271362305 13.293083190917969 -1.9102662801742554
23.55933380126953 13.15068244934082 -1.900429606437683
23.624961853027344 13.090140342712402 -1.9023969173431396
24.019088745117188 13.210066795349121 -1.9307825565338135
24.03595542907715 13.121158599853516 -1.928815245628357
24.10161590576172 13.058890342712402 -1.9307825565338135
24.09683609008789 12.958539009094238 -1.9271289110183716
24.1972713470459 12.914711952209473 -1.9319067001342773
24.297664642333984 12.870382308959961 -1.936684489250183
24.37329864501953 12.81255054473877 -1.9394949674606323
24.39927864074707 12.728536605834961 -1.9383708238601685
24.45332145690918 12.659157752990723 -1.9394949674606323
24.50716781616211 12.58956527709961 -1.9406191110610962
24.532377243041992 12.505265235900879 -1.9394949674606323
24.567983627319336 12.42633056640625 -1.9392138719558716
24.57480239868164 12.33298110961914 -1.936684489250183
24.65271759033203 12.27527904510498 -1.939776062965393
24.694738388061523 12.199535369873047 -1.9400570392608643
24.772354125976562 12.141212463378906 -1.9431486129760742
24.8319034576416 12.073795318603516 -1.94483482837677
24.923620223999023 12.021728515625 -1.9490505456924438
25.000858306884766 11.962312698364258 -1.9521420001983643
25.023897171020508 11.876869201660156 -1.9510178565979004
25.064695358276367 11.799894332885742 -1.9512988328933716
25.15225601196289 11.744725227355957 -1.9552335739135742
25.17092514038086 11.657267570495605 -1.9538283348083496
25.258188247680664 11.601449012756348 -1.9577629566192627
25.3743953704834 11.558430671691895 -1.963945984840393
25.366945266723633 11.458946228027344 -1.960573434829712
25.424667358398438 11.388981819152832 -1.9622596502304077
25.47126007080078 11.313913345336914 -1.9631028175354004
25.459209442138672 11.21292781829834 -1.9594491720199585
25.497966766357422 11.134490013122559 -1.9597302675247192
25.554790496826172 11.063840866088867 -1.961416482925415
25.538089752197266 10.961469650268555 -1.957481861114502
25.598100662231445 10.892123222351074 -1.9594491720199585
25.599105834960938 10.79769229888916 -1.95691978931427
25.647624969482422 10.723376274108887 -1.9580439329147339
25.68487548828125 10.644274711608887 -1.9583250284194946
25.740331649780273 10.57262897491455 -1.9600112438201904
25.791898727416992 10.499232292175293 -1.961416482925415
25.84695816040039 10.427108764648438 -1.9631028175354004
25.912931442260742 10.3591890335083 -1.9656322002410889
26.07518768310547 10.329161643981934 -1.9754687547683716
26.118650436401367 10.251567840576172 -1.9763119220733643
26.098663330078125 10.149215698242188 -1.9723773002624512
26.17137908935547 10.082952499389648 -1.9754687547683716
26.20665168762207 10.002107620239258 -1.9757498502731323
26.181961059570312 9.898560523986816 -1.9715341329574585
26.2540340423584 9.831653594970703 -1.9746257066726685
26.314720153808594 9.760224342346191 -1.9768739938735962
26.3377628326416 9.674753189086914 -1.9763119220733643
26.375524520874023 9.594694137573242 -1.9768739938735962
26.41304588317871 9.514488220214844 -1.9774360656738281
26.39019012451172 9.412697792053223 -1.973501443862915
26.449729919433594 9.340373039245605 -1.9757498502731323
26.463876724243164 9.25196647644043 -1.9746257066726685
26.46641731262207 9.159646034240723 -1.972658395767212
26.521486282348633 9.085504531860352 -1.9746257066726685
26.572572708129883 9.009830474853516 -1.9763119220733643
