VERSION 0.7
FIELDS x y z
SIZE 4 4 4
TYPE F F F
WIDTH 981
HEIGHT 1
POINTS 981
DATA ascii
-5.515069961547852 -0.7187046408653259 5.0
0.0 -1.181382179260254 -5.529014587402344
-0.23508144915103912 5.0 0.0
-1.1511225700378418 -5.467079162597656 0.24981003999710083
1.0 0.0 -0.6604299545288086
-4.460565567016602 -0.23555468022823334 10.0
0.0 -0.5638504028320312 -4.221000671386719
0.28110796213150024 2.0 0.0
-1.0072569847106934 -5.445810317993164 0.7420765161514282
3.0 0.0 -1.034959316253662
-5.779262542724609 -1.677873134613037 10.0
0.0 -1.0497651100158691 -5.839681625366211
-1.1943469047546387 8.0 0.0
-1.0017967224121094 -5.722101211547852 -0.7156144380569458
1.0 0.0 -0.6461215019226074
-4.794122695922852 -0.23544810712337494 3.0
0.0 -0.9001350402832031 -5.492914199829102
0.2511996030807495 7.0 0.0
-0.9265909194946289 -5.8283843994140625 -1.677323579788208
12.0 0.0 -0.9102678298950195
-5.795927047729492 -1.1985851526260376 2.0
0.0 -0.8909482955932617 -5.765766143798828
-0.715578556060791 1.0 0.0
-0.4907517433166504 -4.73710823059082 -0.23550264537334442
1.0 0.0 -0.7814178466796875
-5.509735107421875 0.25178220868110657 7.0
0.0 -0.7862038612365723 -5.543088912963867
0.7414061427116394 3.0 0.0
1.2130241394042969 -0.7057819366455078 -0.2372320592403412
1.0 0.0 -0.6543803215026855
-5.5261993408203125 0.252454549074173 7.0
0.0 -0.6866984367370605 -5.867107391357422
-1.6808524131774902 31.0 0.0
-0.5270214080810547 -5.532819747924805 0.25335693359375
7.0 0.0 -0.5693106651306152
-5.894062042236328 -1.6821253299713135 26.0
0.0 -0.5813760757446289 -5.934173583984375
-1.198147177696228 30.0 0.0
-0.40066051483154297 -5.533313751220703 0.2543966472148895
7.0 0.0 -0.4459824562072754
-5.906959533691406 -1.6845204830169678 23.0
0.0 -0.45641517639160156 -5.952016830444336
-1.1995670795440674 31.0 0.0
1.2663602828979492 -1.7593002319335938 -0.23689524829387665
1.0 0.0 -0.26723670959472656
-5.53741455078125 0.25543496012687683 7.0
0.0 -0.31842470169067383 -5.920164108276367
-1.687056064605713 22.0 0.0
-0.33169031143188477 -5.961925506591797 -1.201362133026123
28.0 0.0 -0.293093204498291
-5.887962341308594 -0.7181330323219299 1.0
0.0 -0.13396263122558594 -5.533632278442383
0.25665736198425293 8.0 0.0
-0.19335365295410156 -5.931013107299805 -1.6897315979003906
18.0 0.0 -0.20502471923828125
-5.977701187133789 -1.2029694318771362 37.0
0.0 -0.14888954162597656 -5.863433837890625
-0.7199845314025879 1.0 0.0
-0.06733226776123047 -5.940776824951172 -1.6925463676452637
13.0 0.0 -0.07690238952636719
-5.981880187988281 -1.205139398574829 36.0
0.0 -0.06275272369384766 -5.958318710327148
-0.7187179327011108 1.0 0.0
1.2966327667236328 -2.805074691772461 -0.23655472695827484
3.0 0.0 1.1459388732910156
-3.1781177520751953 0.3175053000450134 2.0
0.0 0.06597518920898438 -5.934917449951172
-1.6966238021850586 11.0 0.0
0.051299095153808594 -5.978086471557617 -1.20768404006958
33.0 0.0 1.1445255279541016
-3.5147743225097656 0.3104237914085388 2.0
0.0 0.1996021270751953 -5.929986953735352
-1.7007009983062744 11.0 0.0
0.18726825714111328 -5.976268768310547 -1.2103239297866821
28.0 0.0 1.1510686874389648
-3.844942092895508 0.30356907844543457 2.0
0.0 0.35131359100341797 -5.67005729675293
0.7558196783065796 1.0 0.0
0.33613109588623047 -5.929222106933594 -1.7046384811401367
28.0 0.0 0.32267189025878906
-5.968416213989258 -1.2132446765899658 27.0
0.0 1.0774364471435547 -4.335002899169922
0.2926556468009949 2.0 0.0
0.5000038146972656 -5.637706756591797 0.7599682807922363
1.0 0.0 1.3882389068603516
-6.040992736816406 -0.23548278212547302 2.0
0.0 -1.2627453804016113 6.024316787719727
-1.0442783832550049 5.0 0.20018887519836426
-1.2286038398742676 6.147346496582031 -0.2722965180873871
6.0 0.20018887519836426 -1.2570743560791016
5.163835525512695 -1.0246210098266602 4.0
0.20018887519836426 -1.229386806488037 5.255254745483398
-0.2721145451068878 6.0 0.20018887519836426
-1.2038965225219727 4.555841445922852 -1.0111136436462402
4.0 0.20018887519836426 -1.2206268310546875
4.4254150390625 -0.27196669578552246 5.0
0.20018887519836426 -1.2465858459472656 3.5667724609375
-0.9882065057754517 12.0 0.20018887519836426
-1.213484287261963 3.6543540954589844 -0.27182725071907043
5.0 0.20018887519836426 -1.257108211517334
2.782632827758789 -0.9702444672584534 7.0
0.20018887519836426 -1.2075400352478027 2.9379806518554688
-0.2716964781284332 7.0 0.20018887519836426
-0.9545574188232422 3.2943267822265625 -1.7022857666015625
3.0 0.20018887519836426 -1.2387967109680176
2.0872020721435547 -0.9545475244522095 7.0
0.20018887519836426 -1.2666397094726562 1.330087661743164
-1.608741283416748 6.0 0.20018887519836426
-1.2355413436889648 1.4067554473876953 -0.9390970468521118
6.0 0.20018887519836426 -1.2625393867492676
0.6841068267822266 -1.5794577598571777 6.0
0.20018887519836426 -1.2273898124694824 0.7756156921386719
-0.9248290061950684 6.0 0.20018887519836426
-1.2582311630249023 -1.1378021240234375 -1.497014045715332
7.0 0.20018887519836426 -1.2113409042358398
-1.0076427459716797 -0.884578287601471 8.0
0.20018887519836426 -1.2051820755004883 -1.5447521209716797
-0.8725054264068604 7.0 0.20018887519836426
-1.2355504035949707 -2.1504974365234375 -1.4516725540161133
7.0 0.20018887519836426 -1.205550193786621
-2.0830249786376953 -0.860370934009552 10.0
0.20018887519836426 -1.25040864944458 -2.7160987854003906
-1.4259939193725586 9.0 0.20018887519836426
-1.1976876258850098 -2.5724449157714844 -0.8494252562522888
9.0 0.20018887519836426 -1.2427363395690918
-3.185068130493164 -1.4050452709197998 8.0
0.20018887519836426 -1.193507194519043 -3.0554161071777344
-0.8386117219924927 9.0 0.20018887519836426
-1.2337703704833984 -3.6323280334472656 -1.3851287364959717
8.0 0.20018887519836426 -1.186422348022461
-3.5108985900878906 -0.8284603953361511 9.0
0.20018887519836426 -0.9983305931091309 -2.919065475463867
-0.27098172903060913 4.0 0.20018887519836426
-1.2231440544128418 -4.057933807373047 -1.3662452697753906
7.0 0.20018887519836426 -1.1765398979187012
-3.9408416748046875 -0.818923830986023 8.0
0.20018887519836426 -0.8218636512756348 -2.831258773803711
-0.2714075446128845 4.0 0.20018887519836426
-1.1467490196228027 -4.306640625 -0.8110246658325195
8.0 0.20018887519836426 -1.1140623092651367
-4.221799850463867 -0.270443856716156 3.0
0.20018887519836426 -1.0904912948608398 -4.178781509399414
0.27337029576301575 10.0 0.20018887519836426
-1.071824073791504 -4.479217529296875 -1.3499228954315186
24.0 0.20018887519836426 -1.0371522903442383
-4.402824401855469 -0.8099114894866943 4.0
0.20018887519836426 -0.6154952049255371 -3.1322269439697266
-0.27182212471961975 9.0 0.20018887519836426
-0.5208673477172852 -2.8750247955322266 0.3046500086784363
3.0 0.20018887519836426 -0.918576717376709
-4.117376327514648 0.8266863226890564 2.0
0.20018887519836426 -0.9458050727844238 -4.522607803344727
-1.350111484527588 22.0 0.20018887519836426
-0.9145193099975586 -4.45782470703125 -0.8098582029342651
8.0 0.20018887519836426 -0.5615429878234863
-3.417247772216797 -0.2718872129917145 6.0
0.20018887519836426 -0.7965836524963379 -4.150415420532227
0.2754247486591339 11.0 0.20018887519836426
-0.7968459129333496 -4.180599212646484 0.8253933787345886
2.0 0.20018887519836426 -0.8149385452270508
-4.551637649536133 -1.351059913635254 9.0
0.20018887519836426 -0.7896862030029297 -4.50590705871582
-0.8099970817565918 4.0 0.20018887519836426
-0.3766050338745117 -3.308370590209961 -0.2723371982574463
1.0 0.20018887519836426 -0.6583762168884277
-4.165103912353516 0.27580496668815613 11.0
0.20018887519836426 -0.6594634056091309 -4.197202682495117
0.8263842463493347 2.0 0.20018887519836426
-0.6762962341308594 -4.558736801147461 -1.3531482219696045
9.0 0.20018887519836426 -0.6664695739746094
-4.558454513549805 -0.8100380897521973 2.0
0.20018887519836426 -0.5155014991760254 -4.167413711547852
0.2764970660209656 11.0 0.20018887519836426
-0.5357980728149414 -4.254268646240234 0.8254584670066833
2.0 0.20018887519836426 -0.537665843963623
-4.579380035400391 -1.3546748161315918 11.0
0.20018887519836426 -0.5110039710998535 -4.519336700439453
-0.812447726726532 2.0 0.20018887519836426
-0.36852598190307617 -4.172040939331055 0.27718043327331543
11.0 0.20018887519836426 -0.39919185638427734
-4.274328231811523 0.8263588547706604 2.0
0.20018887519836426 -0.2318258285522461 -4.182334899902344
0.277702271938324 11.0 0.20018887519836426
-0.26531410217285156 -4.302822113037109 0.8268939852714539
2.0 0.20018887519836426 -0.268373966217041
-4.609724044799805 -1.358177900314331 31.0
0.20018887519836426 -0.2110614776611328 -4.479982376098633
-0.8163509368896484 2.0 0.20018887519836426
1.279801368713379 -0.43938636779785156 -0.27676233649253845
2.0 0.20018887519836426 -0.08422183990478516
-4.17609977722168 0.2786601781845093 11.0
0.20018887519836426 -0.11495685577392578 -4.287067413330078
0.8296183943748474 2.0 0.20018887519836426
-0.12614727020263672 -4.623567581176758 -1.3601796627044678
37.0 0.20018887519836426 0.026447296142578125
-4.30926513671875 0.8306019902229309 2.0
0.20018887519836426 0.01943683624267578 -4.618247985839844
-1.3631253242492676 37.0 0.20018887519836426
1.2618837356567383 -1.3863029479980469 -0.27652332186698914
2.0 0.20018887519836426 1.166438102722168
-1.6672496795654297 0.3399587869644165 3.0
0.20018887519836426 0.17179107666015625 -4.310401916503906
0.8325958847999573 4.0 0.20018887519836426
0.16392135620117188 -4.617597579956055 -1.3658812046051025
37.0 0.20018887519836426 1.1678848266601562
-2.0871753692626953 0.33094513416290283 3.0
0.20018887519836426 0.3166828155517578 -4.314342498779297
0.8344987034797668 7.0 0.20018887519836426
0.9676389694213867 -4.454998016357422 -1.388730525970459
92.0 0.20018887519836426 1.1381359100341797
-4.4161834716796875 -1.3938827514648438 26.0
0.20018887519836426 1.267643928527832 -4.150371551513672
-0.27595195174217224 4.0 0.20018887519836426
1.2104673385620117 -4.308494567871094 0.28387451171875
2.0 0.20018887519836426 -1.2685694694519043
6.128868103027344 -1.0372519493103027 5.0
0.2505168914794922 -1.261789321899414 5.250293731689453
-1.0177818536758423 5.0 0.2505168914794922
-1.2247323989868164 5.357696533203125 -0.2555263042449951
6.0 0.2505168914794922 -1.145115852355957
4.880714416503906 -1.0104429721832275 4.0
0.2505168914794922 -1.2192697525024414 4.516876220703125
-0.2559497654438019 6.0 0.2505168914794922
-1.247908592224121 3.6022472381591797 -0.9813417196273804
8.0 0.2505168914794922 -1.2057886123657227
3.728466033935547 -0.2563660740852356 5.0
0.2505168914794922 -0.9260907173156738 4.213037490844727
-1.744215726852417 4.0 0.2505168914794922
-1.239875316619873 2.8553600311279297 -0.9648736715316772
7.0 0.2505168914794922 -1.188608169555664
3.0181846618652344 -0.256753146648407 5.0
0.2505168914794922 -1.2364768981933594 2.124897003173828
-0.9487580060958862 7.0 0.2505168914794922
-1.2661223411560059 1.3441333770751953 -1.611008882522583
6.0 0.2505168914794922 -1.235452651977539
1.4187088012695312 -0.9331814646720886 7.0
0.2505168914794922 -1.2034153938293457 -1.0227203369140625
-0.8797592520713806 8.0 0.2505168914794922
-1.2207040786743164 -1.616659164428711 -1.479513168334961
5.0 0.2505168914794922 -1.206315517425537
-1.6045646667480469 -0.8669900894165039 8.0
0.2505168914794922 -1.2425484657287598 -2.2579593658447266
-1.4507031440734863 7.0 0.2505168914794922
-1.1981086730957031 -2.1240234375 -0.8557026982307434
7.0 0.2505168914794922 -1.2414445877075195
-2.763254165649414 -1.4283111095428467 9.0
0.2505168914794922 -1.1911730766296387 -2.627391815185547
-0.8447757363319397 10.0 0.2505168914794922
-1.230722427368164 -3.2473220825195312 -1.4070494174957275
9.0 0.2505168914794922 -1.1816282272338867
-3.1177730560302734 -0.8341728448867798 9.0
0.2505168914794922 -1.0390129089355469 -2.660703659057617
-0.2598705291748047 5.0 0.2505168914794922
-1.213219165802002 -3.675893783569336 -1.388385534286499
6.0 0.2505168914794922 -1.1752729415893555
-3.5705204010009766 -0.8243803977966309 9.0
0.2505168914794922 -0.8385930061340332 -2.5015487670898438
-0.260273277759552 5.0 0.2505168914794922
-1.152543544769287 -3.968446731567383 -0.815946102142334
8.0 0.2505168914794922 -1.1175665855407715
-3.888692855834961 -0.2602764368057251 3.0
0.2505168914794922 -1.095118522644043 -3.8352603912353516
0.2987530827522278 8.0 0.2505168914794922
-1.0684595108032227 -4.140871047973633 -1.3702301979064941
24.0 0.2505168914794922 -1.0370144844055176
-4.07368278503418 -0.8147414326667786 4.0
0.2505168914794922 -0.6164522171020508 -2.7691917419433594
-0.2609347701072693 8.0 0.2505168914794922
-0.5310873985290527 -2.5347213745117188 0.33075904846191406
3.0 0.2505168914794922 -0.9135870933532715
-3.7681427001953125 0.8677350878715515 5.0
0.2505168914794922 -0.934842586517334 -4.17291259765625
-1.3710312843322754 30.0 0.2505168914794922
-0.907921314239502 -4.121084213256836 -0.8149338364601135
8.0 0.2505168914794922 -0.5620923042297363
-3.0867156982421875 -0.2612181305885315 6.0
0.2505168914794922 -0.7872166633605957 -3.7983570098876953
0.30100518465042114 11.0 0.2505168914794922
-0.7938632965087891 -3.850435256958008 0.8654524683952332
2.0 0.2505168914794922 -0.7992987632751465
-4.212749481201172 -1.371561050415039 24.0
0.2505168914794922 -0.7802143096923828 -4.185720443725586
-0.8147596716880798 4.0 0.2505168914794922
-0.637505054473877 -3.8030147552490234 0.30161935091018677
11.0 0.2505168914794922 -0.6532344818115234
-3.8815746307373047 0.8657532334327698 2.0
0.2505168914794922 -0.659602165222168 -4.227422714233398
-1.3732998371124268 28.0 0.2505168914794922
-0.6462392807006836 -4.204891204833984 -0.8156471848487854
2.0 0.2505168914794922 -0.4947700500488281
-3.816682815551758 0.3020141124725342 12.0
0.2505168914794922 -0.5188002586364746 -3.905210494995117
0.866351306438446 5.0 0.2505168914794922
-0.5270423889160156 -4.251092910766602 -1.3745603561401367
24.0 0.2505168914794922 -0.480374813079834
-4.144857406616211 -0.8185683488845825 2.0
0.2505168914794922 -0.35205507278442383 -3.8185253143310547
0.30269259214401245 12.0 0.2505168914794922
-0.38041067123413086 -3.9310150146484375 0.8669394850730896
5.0 0.2505168914794922 -0.3760852813720703
-4.248106002807617 -1.3773424625396729 30.0
0.2505168914794922 -0.20044708251953125 -3.8221874237060547
0.3033960461616516 12.0 0.2505168914794922
-0.23674297332763672 -3.9552688598632812 0.8677021861076355
7.0 0.2505168914794922 -0.23678970336914062
-4.267265319824219 -1.3789892196655273 36.0
0.2505168914794922 1.2833614349365234 -0.05050468444824219
-0.26417240500450134 2.0 0.2505168914794922
-0.051280975341796875 -3.8216495513916016 0.304199755191803
6.0 0.2505168914794922 -0.09304237365722656
-3.9677276611328125 0.8690292239189148 10.0
0.2505168914794922 -0.0860595703125 -4.268095016479492
-1.3816795349121094 38.0 0.2505168914794922
0.05147266387939453 -3.979166030883789 0.8704480528831482
10.0 0.2505168914794922 0.055701255798339844
-4.270730972290039 -1.3841631412506104 42.0
0.2505168914794922 1.1669034957885742 -1.3407745361328125
0.3662623167037964 3.0 0.2505168914794922
0.20442581176757812 -3.969104766845703 0.8729744553565979
10.0 0.2505168914794922 1.1739568710327148
-1.7656898498535156 0.35684889554977417 3.0
0.2505168914794922 0.3592214584350586 -3.9562225341796875
0.875684916973114 7.0 0.2505168914794922
1.0976142883300781 -3.9942188262939453 0.30712318420410156
6.0 0.2505168914794922 1.3038883209228516
-3.8537139892578125 -0.266054630279541 3.0
0.2505168914794922 1.310673713684082 -3.863492965698242
0.3113647699356079 3.0 0.2505168914794922
-1.2573604583740234 6.001684188842773 -1.0189284086227417
5.0 0.3505990505218506 -1.214322566986084
6.142145156860352 -0.2241796851158142 7.0
0.3505990505218506 -1.2063241004943848 5.212451934814453
-0.22558186948299408 6.0 0.3505990505218506
-1.2476577758789062 4.220815658569336 -0.9812201857566833
4.0 0.3505990505218506 -1.2016010284423828
4.370271682739258 -0.22684885561466217 6.0
0.3505990505218506 -1.234729290008545 3.4087581634521484
-0.9641167521476746 4.0 0.3505990505218506
-1.162766933441162 3.6690006256103516 -0.2279534488916397
2.0 0.3505990505218506 -1.2264418601989746
2.6417465209960938 -0.9479605555534363 8.0
0.3505990505218506 -1.2267475128173828 1.8757057189941406
-0.9317904114723206 7.0 0.3505990505218506
-1.19793701171875 -0.12094688415527344 -0.8899732828140259
6.0 0.3505990505218506 -1.1816339492797852
-0.6539230346679688 -1.528946876525879 3.0
0.3505990505218506 -1.2141375541687012 -0.8004360198974609
-0.8756003379821777 6.0 0.3505990505218506
-1.2360434532165527 -1.468362808227539 -1.4927265644073486
8.0 0.3505990505218506 -1.1914482116699219
-1.3257122039794922 -0.8647658228874207 9.0
0.3505990505218506 -1.2243752479553223 -2.0263328552246094
-1.4686079025268555 7.0 0.3505990505218506
-1.182887077331543 -1.8978118896484375 -0.8528668284416199
8.0 0.3505990505218506 -1.2245244979858398
-2.5695228576660156 -1.445009469985962 7.0
0.3505990505218506 -1.1749019622802734 -2.4313087463378906
-0.8417913317680359 8.0 0.3505990505218506
-1.0413389205932617 -1.9802417755126953 -0.23657257854938507
3.0 0.3505990505218506 -1.2140493392944336
-3.0708656311035156 -1.4234130382537842 7.0
0.3505990505218506 -1.1611380577087402 -2.923643112182617
-0.8316370844841003 7.0 0.3505990505218506
-0.8316497802734375 -1.8048858642578125 -0.23660944402217865
4.0 0.3505990505218506 -1.1211090087890625
-3.307931900024414 -0.8239586353302002 17.0
0.3505990505218506 -1.0730457305908203 -3.180156707763672
-0.23831957578659058 1.0 0.3505990505218506
-1.0548624992370605 -3.1536712646484375 0.35110998153686523
3.0 0.3505990505218506 -0.9352474212646484
-2.769590377807617 0.9647906422615051 2.0
0.3505990505218506 -1.0230293273925781 -3.4515609741210938
-1.409719705581665 30.0 0.3505990505218506
-0.9928841590881348 -3.3855953216552734 -0.8233754634857178
10.0 0.3505990505218506 -0.6039724349975586
-2.132291793823242 -0.23742333054542542 7.0
0.3505990505218506 -0.8889031410217285 -3.0944995880126953
0.3533758521080017 6.0 0.3505990505218506
-0.8687796592712402 -3.0624465942382812 0.9520536065101624
5.0 0.3505990505218506 -0.8804597854614258
-3.4946823120117188 -1.409987449645996 30.0
0.3505990505218506 -0.8522701263427734 -3.4365272521972656
-0.8234662413597107 10.0 0.3505990505218506
-0.5175285339355469 -2.369596481323242 -0.2379012107849121
5.0 0.3505990505218506 -0.729435920715332
-3.0906200408935547 0.35431498289108276 10.0
0.3505990505218506 -0.735684871673584 -3.144620895385742
0.949877917766571 8.0 0.3505990505218506
-0.7357711791992188 -3.5163955688476562 -1.4112505912780762
33.0 0.3505990505218506 -0.723388671875
-3.5098400115966797 -0.8230167031288147 5.0
0.3505990505218506 1.2980079650878906 2.8949317932128906
-0.23262935876846313 2.0 0.3505990505218506
-0.5781559944152832 -3.0998077392578125 0.35492122173309326
13.0 0.3505990505218506 -0.5955348014831543
-3.1881179809570312 0.9496129155158997 11.0
0.3505990505218506 -0.5929031372070312 -3.5446739196777344
-1.4122421741485596 35.0 0.3505990505218506
-0.5609340667724609 -3.477262496948242 -0.8250566720962524
2.0 0.3505990505218506 -0.4273505210876465
-3.1118507385253906 0.35547715425491333 13.0
0.3505990505218506 -0.44642210006713867 -3.203826904296875
0.9507743716239929 8.0 0.3505990505218506
-0.44466733932495117 -3.5713138580322266 -1.4134249687194824
35.0 0.3505990505218506 -0.4059314727783203
-3.4704513549804688 -0.8265208601951599 2.0
0.3505990505218506 0.5412998199462891 -0.6109867095947266
-0.2367863804101944 4.0 0.3505990505218506
-0.26720094680786133 -3.111032485961914 0.35641026496887207
10.0 0.3505990505218506 -0.2966647148132324
-3.2186355590820312 0.9520294070243835 11.0
0.3505990505218506 -0.29602670669555664 -3.5696182250976562
-1.4158704280853271 16.0 0.3505990505218506
-0.11144447326660156 -3.0969581604003906 0.35764819383621216
10.0 0.3505990505218506 -0.1429901123046875
-3.2229480743408203 0.9538533091545105 11.0
0.3505990505218506 -0.14229202270507812 -3.568347930908203
-1.41841721534729 26.0 0.3505990505218506
1.3003244400024414 0.6078758239746094 -0.23605111241340637
2.0 0.3505990505218506 1.2939777374267578
0.5692462921142578 0.45219486951828003 4.0
0.3505990505218506 0.0076732635498046875 -3.2376861572265625
0.9552000164985657 8.0 0.3505990505218506
0.011322021484375 -3.58270263671875 -1.420334815979004
38.0 0.3505990505218506 0.16742610931396484
-3.210418701171875 0.3566630482673645 3.0
0.3505990505218506 0.17380142211914062 -3.2227706909179688
0.958152711391449 5.0 0.3505990505218506
1.1747446060180664 -0.8068008422851562 0.4192070960998535
4.0 0.3505990505218506 0.9833478927612305
-3.502584457397461 -1.4406101703643799 10.0
0.3505990505218506 1.375208854675293 -2.5316925048828125
-0.24084754288196564 4.0 0.3505990505218506
1.0894107818603516 -3.2998199462890625 0.3605968952178955
7.0 0.3505990505218506 1.1709671020507812
-3.429523468017578 -1.4471049308776855 10.0
0.3505990505218506 1.3038196563720703 -3.1345958709716797
-0.24164552986621857 3.0 0.3505990505218506
1.4257078170776367 -3.634979248046875 -0.24256667494773865
1.0 0.3505990505218506 -1.2480902671813965
5.741123199462891 -1.0405027866363525 5.0
0.14988493919372559 -1.1988787651062012 5.90403938293457
-0.2827087640762329 6.0 0.14988493919372559
-1.2429943084716797 4.910669326782227 -1.021140217781067
4.0 0.14988493919372559 -1.2105779647827148
5.021686553955078 -0.2820725739002228 5.0
0.14988493919372559 -1.2250709533691406 4.176679611206055
-1.0041484832763672 8.0 0.14988493919372559
-1.2036676406860352 4.214054107666016 -0.281530499458313
5.0 0.14988493919372559 -1.2566337585449219
3.2703819274902344 -0.9827916622161865 11.0
0.14988493919372559 -1.2001590728759766 3.455303192138672
-0.2810143828392029 5.0 0.14988493919372559
-1.2414464950561523 2.5986156463623047 -0.9672749638557434
7.0 0.14988493919372559 -1.1903772354125977
2.757854461669922 -0.2805544137954712 7.0
0.14988493919372559 -1.2619843482971191 1.8415260314941406
-1.6250882148742676 6.0 0.14988493919372559
-1.2259750366210938 1.9380378723144531 -0.9520452618598938
6.0 0.14988493919372559 -1.1402783393859863
2.253263473510742 -0.28032124042510986 2.0
0.14988493919372559 -1.2546029090881348 1.2010917663574219
-1.595780611038208 6.0 0.14988493919372559
-1.2218751907348633 1.2834358215332031 -0.9368858337402344
6.0 0.14988493919372559 -1.2487573623657227
0.5828380584716797 -1.5675086975097656 6.0
0.14988493919372559 -1.2189931869506836 0.6529216766357422
-0.9222974181175232 6.0 0.14988493919372559
-1.2031192779541016 -1.0744037628173828 -0.8825139403343201
5.0 0.14988493919372559 -1.1984434127807617
-1.5636253356933594 -1.4701745510101318 5.0
0.14988493919372559 -1.1970787048339844 -1.5955696105957031
-0.8705610036849976 10.0 0.14988493919372559
-1.195418357849121 -2.0759754180908203 -1.4469068050384521
2.0 0.14988493919372559 -1.1911325454711914
-2.096708297729492 -0.8590855002403259 10.0
0.14988493919372559 -1.2290172576904297 -2.6908130645751953
-1.418452262878418 12.0 0.14988493919372559
-1.191911220550537 -2.600973129272461 -0.8474993705749512
9.0 0.14988493919372559 -1.2344088554382324
-3.1899051666259766 -1.395733118057251 8.0
0.14988493919372559 -1.1870975494384766 -3.068044662475586
-0.8368337154388428 9.0 0.14988493919372559
-1.2246780395507812 -3.6359195709228516 -1.3756937980651855
8.0 0.14988493919372559 -1.1775259971618652
-3.516561508178711 -0.8266561627388 8.0
0.14988493919372559 -1.1452741622924805 -3.4311790466308594
-0.276367723941803 1.0 0.14988493919372559
-1.215355396270752 -4.053367614746094 -1.3569777011871338
7.0 0.14988493919372559 -1.1702046394348145
-3.9421749114990234 -0.8169997930526733 8.0
0.14988493919372559 -0.9268879890441895 -3.1979293823242188
-0.27703240513801575 3.0 0.14988493919372559
-1.209366798400879 -4.466346740722656 -1.3384430408477783
7.0 0.14988493919372559 -1.1632051467895508
-4.353786468505859 -0.8076772689819336 7.0
0.14988493919372559 -0.7824406623840332 -3.202220916748047
-0.27736198902130127 3.0 0.14988493919372559
-1.1741552352905273 -4.432806015014648 0.25453174114227295
2.0 0.14988493919372559 -1.0882601737976074
-4.562498092651367 -0.27571144700050354 1.0
0.14988493919372559 -1.069429874420166 -4.534389495849609
0.25287604331970215 5.0 0.14988493919372559
-0.9900965690612793 -4.324834823608398 0.7961573004722595
2.0 0.14988493919372559 -1.0599393844604492
-4.843664169311523 -1.3239898681640625 16.0
0.14988493919372559 -1.0229578018188477 -4.762142181396484
-0.7997307777404785 3.0 0.14988493919372559
-0.5930194854736328 -3.5217323303222656 -0.2775757908821106
6.0 0.14988493919372559 -0.909754753112793
-4.471714019775391 0.25501856207847595 2.0
0.14988493919372559 -0.891545295715332 -4.446210861206055
0.7921022772789001 2.0 0.14988493919372559
-0.924562931060791 -4.860065460205078 -1.325594186782837
5.0 0.14988493919372559 -0.899937629699707
-4.803915023803711 -0.7999846339225769 7.0
0.14988493919372559 -0.5300931930541992 -3.760641098022461
-0.2775540053844452 6.0 0.14988493919372559
-0.7786846160888672 -4.507881164550781 0.25492775440216064
10.0 0.14988493919372559 -0.7641205787658691
-4.7823486328125 -1.3318870067596436 5.0
0.14988493919372559 -0.7715916633605957 -4.818655014038086
-0.8009192943572998 1.0 0.14988493919372559
1.0487279891967773 0.32985687255859375 -0.284037321805954
6.0 0.14988493919372559 -0.6453466415405273
-4.513875961303711 0.25550705194473267 10.0
0.14988493919372559 -0.6546425819396973 -4.8631744384765625
-1.33021879196167 8.0 0.14988493919372559
-0.6438302993774414 -4.8594207763671875 -0.8012778162956238
1.0 0.14988493919372559 -0.5087437629699707
-4.523883819580078 0.2560356855392456 10.0
0.14988493919372559 -0.49163818359375 -4.8333282470703125
-0.8034101128578186 1.0 0.14988493919372559
0.5568675994873047 -1.974639892578125 -0.2813006639480591
5.0 0.14988493919372559 -0.36891984939575195
-4.53802490234375 0.2565130293369293 10.0
0.14988493919372559 -0.402163028717041 -4.941776275634766
-1.3313038349151611 33.0 0.14988493919372559
-0.2258157730102539 -4.532968521118164 0.2574332654476166
10.0 0.14988493919372559 -0.26592540740966797
-4.960500717163086 -1.3330018520355225 31.0
0.14988493919372559 -0.22971153259277344 -4.87872314453125
-0.805094838142395 1.0 0.14988493919372559
1.3256587982177734 -0.7918243408203125 -0.2838965356349945
4.0 0.14988493919372559 -0.08002376556396484
-4.533969879150391 0.2582591772079468 10.0
0.14988493919372559 -0.09441184997558594 -4.5862579345703125
0.7967014908790588 2.0 0.14988493919372559
-0.13412952423095703 -4.969738006591797 -1.3350684642791748
38.0 0.14988493919372559 0.02241992950439453
-4.651973724365234 0.7955467104911804 2.0
0.14988493919372559 0.006579399108886719 -4.968231201171875
-1.337815761566162 43.0 0.14988493919372559
1.2823991775512695 -1.7581844329833984 -0.28312423825263977
1.0 0.14988493919372559 1.1746349334716797
-2.0489883422851562 0.31793105602264404 3.0
0.14988493919372559 0.1613626480102539 -4.660673141479492
0.7971894145011902 2.0 0.14988493919372559
0.1534585952758789 -4.96357536315918 -1.3408591747283936
42.0 0.14988493919372559 1.18048095703125
-2.448720932006836 0.3096080422401428 3.0
0.14988493919372559 0.3131074905395508 -4.649499893188477
0.7999066710472107 2.0 0.14988493919372559
1.1943731307983398 -2.8052444458007812 0.3022576570510864
3.0 0.14988493919372559 1.1166009902954102
-4.725421905517578 -1.3707268238067627 31.0
0.14988493919372559 1.2463750839233398 -4.475395202636719
-0.28114569187164307 4.0 0.14988493919372559
-1.268007755279541 6.115020751953125 -1.0275930166244507
5.0 0.3002750873565674 -1.2611517906188965
5.220388412475586 -1.0082917213439941 10.0
0.3002750873565674 -1.2262330055236816 5.346307754516602
-0.23897430300712585 6.0 0.3002750873565674
-1.2734785079956055 4.285839080810547 -0.9880179166793823
14.0 0.3002750873565674 -1.223310947418213
4.477754592895508 -0.239922434091568 6.0
0.3002750873565674 -1.2526955604553223 3.543590545654297
-0.972154974937439 8.0 0.3002750873565674
-1.2096238136291504 3.700021743774414 -0.24079464375972748
5.0 0.3002750873565674 -1.2470684051513672
2.772968292236328 -0.955594539642334 8.0
0.3002750873565674 -1.2407751083374023 2.0196151733398438
-0.9394339323043823 7.0 0.3002750873565674
-1.2556376457214355 1.2872161865234375 -1.609703540802002
6.0 0.3002750873565674 -1.2227826118469238
1.3713130950927734 -0.9256450533866882 7.0
0.3002750873565674 -1.2115674018859863 -0.5665817260742188
-0.8842267990112305 6.0 0.3002750873565674
-1.2003459930419922 -1.0886516571044922 -1.505720853805542
2.0 0.3002750873565674 -1.2187542915344238
-1.1978569030761719 -0.8706908822059631 8.0
0.3002750873565674 -1.2465229034423828 -1.8546524047851562
-1.4714219570159912 7.0 0.3002750873565674
-1.203017234802246 -1.7202224731445312 -0.8596848845481873
8.0 0.3002750873565674 -1.2479987144470215
-2.3975791931152344 -1.4475977420806885 7.0
0.3002750873565674 -1.1968932151794434 -2.2553863525390625
-0.8483476042747498 7.0 0.3002750873565674
-1.2329401969909668 -2.8941287994384766 -1.426086664199829
9.0 0.3002750873565674 -1.1812934875488281
-2.752595901489258 -0.8379174470901489 10.0
0.3002750873565674 -1.0522809028625488 -2.3291587829589844
-0.24766534566879272 5.0 0.3002750873565674
-1.2265691757202148 -3.3849620819091797 -1.404737949371338
4.0 0.3002750873565674 -1.176833152770996
-3.236980438232422 -0.827682375907898 9.0
0.3002750873565674 -0.8393740653991699 -2.135011672973633
-0.24790729582309723 3.0 0.3002750873565674
-1.1474533081054688 -3.6358394622802734 -0.8194963932037354
16.0 0.3002750873565674 -1.1135406494140625
-3.5579299926757812 -0.2488671988248825 1.0
0.3002750873565674 -1.081681728363037 -3.487031936645508
0.3255188465118408 9.0 0.3002750873565674
-1.049189567565918 -3.7928199768066406 -1.3897180557250977
38.0 0.3002750873565674 -1.0215201377868652
-3.7221031188964844 -0.818789005279541 4.0
0.3002750873565674 -0.6122384071350098 -2.4331588745117188
-0.2487131953239441 7.0 0.3002750873565674
-0.912867546081543 -3.4380970001220703 0.32744187116622925
3.0 0.3002750873565674 -0.9029240608215332
-3.4250431060791016 0.9097368121147156 7.0
0.3002750873565674 -0.9181861877441406 -3.831327438354492
-1.3901317119598389 29.0 0.3002750873565674
-0.8908414840698242 -3.7772998809814453 -0.818801760673523
9.0 0.3002750873565674 -0.5560922622680664
-2.735353469848633 -0.24916060268878937 7.0
0.3002750873565674 -0.7702293395996094 -3.4468517303466797
0.32791775465011597 12.0 0.3002750873565674
-0.7783432006835938 -3.5056018829345703 0.9075211882591248
7.0 0.3002750873565674 -0.7790336608886719
-3.858541488647461 -1.391202688217163 29.0
0.3002750873565674 -0.7697405815124512 -3.8617591857910156
-0.8181295990943909 4.0 0.3002750873565674
1.2985343933105469 2.5429534912109375 -0.2473835051059723
2.0 0.3002750873565674 -0.6208453178405762
-3.45013427734375 0.32857125997543335 12.0
0.3002750873565674 -0.6428155899047852 -3.5507278442382812
0.9070910811424255 10.0 0.3002750873565674
-0.636528491973877 -3.8898143768310547 -1.3921916484832764
31.0 0.3002750873565674 -0.6063518524169922
-3.815732955932617 -0.8206093311309814 2.0
0.3002750873565674 -0.46838903427124023 -3.4595394134521484
0.32911884784698486 12.0 0.3002750873565674
-0.4987959861755371 -3.570028305053711 0.9079747796058655
10.0 0.3002750873565674 -0.4977836608886719
-3.9059619903564453 -1.3938090801239014 33.0
0.3002750873565674 -0.4624767303466797 -3.831493377685547
-0.8216289281845093 2.0 0.3002750873565674
-0.322751522064209 -3.4633216857910156 0.32977914810180664
12.0 0.3002750873565674 -0.35604190826416016
-3.594045639038086 0.9086691737174988 10.0
0.3002750873565674 -0.3431692123413086 -3.9030227661132812
-1.3965568542480469 18.0 0.3002750873565674
-0.16481399536132812 -3.459535598754883 0.3307008743286133
13.0 0.3002750873565674 -0.2046499252319336
-3.607034683227539 0.9100107550621033 10.0
0.3002750873565674 -0.19819259643554688 -3.9166717529296875
-1.3984644412994385 40.0 0.3002750873565674
1.2771930694580078 0.27777099609375 -0.2497975379228592
2.0 0.3002750873565674 -0.054619789123535156
-3.6120471954345703 0.9117351174354553 10.0
0.3002750873565674 -0.049805641174316406 -3.9218311309814453
-1.4008357524871826 42.0 0.3002750873565674
0.09683418273925781 -3.6015090942382812 0.9142184853553772
7.0 0.3002750873565674 0.09679222106933594
-3.920787811279297 -1.4034767150878906 42.0
0.3002750873565674 1.2798919677734375 -0.6858139038085938
-0.250850111246109 2.0 0.3002750873565674
1.1602163314819336 -1.0505294799804688 0.3934369683265686
4.0 0.3002750873565674 0.2534646987915039
-3.591510772705078 0.9167835116386414 8.0
0.3002750873565674 1.0644559860229492 -3.820779800415039
-1.4257428646087646 7.0 0.3002750873565674
1.2387313842773438 -3.428325653076172 -0.2537385821342468
3.0 0.3002750873565674 1.1756973266601562
-3.6130924224853516 0.3351026177406311 6.0
0.3002750873565674 1.3657875061035156 -3.518218994140625
-0.25410759449005127 1.0 0.3002750873565674
1.4908256530761719 -3.9785289764404297 -0.25487470626831055
1.0 0.3002750873565674 -1.2415308952331543
5.939470291137695 -1.0039666891098022 4.0
0.049794912338256836 -1.2127676010131836 6.038814544677734
-0.2570335268974304 6.0 0.049794912338256836
-1.2585029602050781 5.037483215332031 -0.9829556345939636
4.0 0.049794912338256836 -1.2177934646606445
5.162492752075195 -0.25656771659851074 5.0
0.049794912338256836 -1.2594881057739258 4.247673034667969
-0.9646663665771484 7.0 0.049794912338256836
-1.220688819885254 4.362575531005859 -0.25614339113235474
5.0 0.049794912338256836 -0.9534306526184082
5.416042327880859 1.222599983215332 5.0
0.049794912338256836 -1.2641773223876953 3.480287551879883
-0.9468950033187866 7.0 0.049794912338256836
-1.2198596000671387 3.6162376403808594 -0.2557501196861267
7.0 0.049794912338256836 -1.2850522994995117
2.662334442138672 -0.9278723001480103 3.0
0.049794912338256836 -1.2138705253601074 2.9252777099609375
-0.25539135932922363 7.0 0.049794912338256836
-1.2825417518615723 2.037748336791992 -1.577817678451538
6.0 0.049794912338256836 -1.2505998611450195
2.1407222747802734 -0.9160729646682739 6.0
0.049794912338256836 -1.2087340354919434 2.262340545654297
-0.2550458014011383 6.0 0.049794912338256836
-1.2830519676208496 1.3863983154296875 -1.5480310916900635
6.0 0.049794912338256836 -1.248781681060791
1.496419906616211 -0.9012498259544373 6.0
0.049794912338256836 -1.1878275871276855 1.6892986297607422
-0.2547641396522522 6.0 0.049794912338256836
-1.2739348411560059 0.7810840606689453 -1.5205152034759521
8.0 0.049794912338256836 -1.2351112365722656
0.9059505462646484 -0.8877675533294678 9.0
0.049794912338256836 -1.2728123664855957 0.20800399780273438
-1.4944038391113281 8.0 0.049794912338256836
-1.239281177520752 0.3110618591308594 -0.8740766644477844
8.0 0.049794912338256836 -1.266535758972168
-0.3404388427734375 -1.4695217609405518 7.0
0.049794912338256836 -1.268122673034668 -1.9418296813964844
-1.3968329429626465 11.0 0.049794912338256836
-1.2198691368103027 -1.8117027282714844 -0.8256601691246033
9.0 0.049794912338256836 -1.2111215591430664
-2.2402591705322266 -1.3841543197631836 6.0
0.049794912338256836 -1.212294578552246 -2.2750911712646484
-0.8151599764823914 6.0 0.049794912338256836
-1.2223701477050781 -2.7484359741210938 -1.3610434532165527
2.0 0.049794912338256836 -1.2110280990600586
-2.741628646850586 -0.8045586347579956 8.0
0.049794912338256836 -1.206169605255127 -3.1933460235595703
-0.7943401336669922 8.0 0.049794912338256836
-1.2493586540222168 -3.736623764038086 -1.3161358833312988
7.0 0.049794912338256836 -1.2040777206420898
-3.6240386962890625 -0.7845932841300964 7.0
0.049794912338256836 -1.2411742210388184 -4.131956100463867
-1.2985084056854248 6.0 0.049794912338256836
-1.2004847526550293 -4.035072326660156 -0.7753227353096008
7.0 0.049794912338256836 -1.234121322631836
-4.517145156860352 -1.2813506126403809 8.0
0.049794912338256836 -1.1937298774719238 -4.422628402709961
-0.7666245698928833 7.0 0.049794912338256836
-1.0651907920837402 -4.053920745849609 -0.2518154978752136
4.0 0.049794912338256836 -1.2286667823791504
-4.894092559814453 -1.2645676136016846 7.0
0.049794912338256836 -1.1860156059265137 -4.794384002685547
-0.7583067417144775 6.0 0.049794912338256836
-1.2641973495483398 -5.035749435424805 -0.251079261302948
1.0 0.049794912338256836 -1.2247180938720703
-5.262914657592773 -1.2481601238250732 6.0
0.049794912338256836 -1.1810522079467773 -5.161775588989258
-0.7500810623168945 6.0 0.049794912338256836
-1.1842527389526367 -5.183708190917969 -0.2510802149772644
2.0 0.049794912338256836 -1.1600651741027832
-5.138574600219727 0.24850529432296753 2.0
0.049794912338256836 -1.1599650382995605 -5.448444366455078
-1.2409508228302002 6.0 0.049794912338256836
-0.6712613105773926 -4.121519088745117 -0.2521806061267853
17.0 0.049794912338256836 -1.0011615753173828
-5.085386276245117 0.757023811340332 4.0
0.049794912338256836 -1.0095272064208984 -5.425811767578125
-0.7456551194190979 1.0 0.049794912338256836
-0.6493077278137207 -4.443584442138672 -0.2520274817943573
5.0 0.049794912338256836 -0.9011425971984863
-5.16221809387207 0.24974066019058228 8.0
0.049794912338256836 -0.8832097053527832 -5.437583923339844
-0.7465192675590515 1.0 0.049794912338256836
-0.5152750015258789 -4.451854705810547 -0.25215911865234375
2.0 0.049794912338256836 -0.7746720314025879
-5.178361892700195 0.2502712607383728 8.0
0.049794912338256836 -0.784909725189209 -5.2291259765625
0.7539944648742676 3.0 0.049794912338256836
-0.7964067459106445 -5.533357620239258 -1.2433226108551025
4.0 0.049794912338256836 1.17138671875
-0.3246269226074219 -0.2561253309249878 4.0
0.049794912338256836 -0.6425180435180664 -5.180316925048828
0.2511599063873291 8.0 0.049794912338256836
-0.6696839332580566 -5.522544860839844 -1.7428085803985596
5.0 0.049794912338256836 1.2788820266723633
-0.4762229919433594 -0.25615206360816956 6.0
0.049794912338256836 -0.5158686637878418 -5.1980743408203125
0.2516915798187256 8.0 0.049794912338256836
-0.5637607574462891 -5.610698699951172 -1.2439804077148438
26.0 0.049794912338256836 0.5950679779052734
-2.672994613647461 -0.25425785779953003 1.0
0.049794912338256836 -0.38408756256103516 -5.203563690185547
0.2525365352630615 8.0 0.049794912338256836
-0.4136805534362793 -5.552700042724609 -1.7475147247314453
22.0 0.049794912338256836 -0.43367719650268555
-5.624881744384766 -1.2456881999969482 27.0
0.049794912338256836 -0.4036102294921875 -5.570213317871094
-0.7479981780052185 1.0 0.049794912338256836
-0.24565696716308594 -5.203874588012695 0.253557413816452
8.0 0.049794912338256836 -0.287264347076416
-5.568248748779297 -1.7498652935028076 26.0
0.049794912338256836 -0.30396270751953125 -5.6310577392578125
-1.2477717399597168 27.0 0.049794912338256836
-0.10972881317138672 -5.201820373535156 0.2546265721321106
8.0 0.049794912338256836 -0.15253543853759766
-5.564365386962891 -1.7537693977355957 27.0
0.049794912338256836 -0.17858505249023438 -5.649168014526367
-1.2492847442626953 38.0 0.049794912338256836
-0.019010543823242188 -5.565025329589844 -1.7573907375335693
27.0 0.049794912338256836 -0.045497894287109375
-5.649600982666016 -1.2517468929290771 37.0
0.049794912338256836 1.2894859313964844 -2.46807861328125
-0.2550709545612335 3.0 0.049794912338256836
1.1512012481689453 -2.824422836303711 0.31420695781707764
3.0 0.049794912338256836 0.118255615234375
-5.568017959594727 -1.7610149383544922 27.0
0.049794912338256836 0.08862876892089844 -5.649065017700195
-1.2543036937713623 42.0 0.049794912338256836
1.159956932067871 -3.1659889221191406 0.30714476108551025
2.0 0.049794912338256836 0.25676918029785156
-5.323390960693359 0.7666937112808228 1.0
0.049794912338256836 0.2557506561279297 -5.57196044921875
-1.7646381855010986 26.0 0.049794912338256836
0.22804546356201172 -5.647258758544922 -1.2570531368255615
33.0 0.049794912338256836 1.1649370193481445
-3.5177783966064453 0.299859881401062 2.0
0.049794912338256836 0.3894920349121094 -5.3427886962890625
0.7681550979614258 1.0 0.049794912338256836
1.0953922271728516 -4.010282516479492 0.28906214237213135
2.0 0.049794912338256836 0.528874397277832
-5.328826904296875 0.7711771130561829 1.0
0.049794912338256836 1.4701976776123047 -5.685249328613281
-0.25345954298973083 1.0 0.049794912338256836
-1.2276663780212402 5.918144226074219 -1.0413765907287598
5.0 0.40036702156066895 -1.2225875854492188
5.903392791748047 -0.24100375175476074 7.0
0.40036702156066895 -1.247037410736084 4.908838272094727
-1.0196194648742676 10.0 0.40036702156066895
-1.2118158340454102 5.008028030395508 -0.24218803644180298
6.0 0.40036702156066895 -1.2516846656799316
3.991443634033203 -0.9999556541442871 4.0
0.40036702156066895 -1.195589542388916 4.184055328369141
-0.24328967928886414 6.0 0.40036702156066895
-1.2334589958190918 3.196817398071289 -0.9831053614616394
4.0 0.40036702156066895 -1.2355690002441406
2.379056930541992 -0.9656375050544739 8.0
0.40036702156066895 -1.2113375663757324 0.2738456726074219
-0.9210143685340881 6.0 0.40036702156066895
-0.9190611839294434 1.3094234466552734 1.1538329124450684
4.0 0.40036702156066895 -1.2074618339538574
-0.3547096252441406 -1.571923017501831 3.0
0.40036702156066895 -1.2169923782348633 -0.4382209777832031
-0.9058614373207092 6.0 0.40036702156066895
-0.9086098670959473 0.6370201110839844 1.12266206741333
4.0 0.40036702156066895 -1.2413320541381836
-1.125885009765625 -1.5376312732696533 9.0
0.40036702156066895 -1.1994690895080566 -0.9920902252197266
-0.894262969493866 9.0 0.40036702156066895
-1.239638328552246 -1.7132148742675781 -1.511932134628296
5.0 0.40036702156066895 -1.1921415328979492
-1.5793190002441406 -0.8818985223770142 9.0
0.40036702156066895 -1.226346492767334 -2.269378662109375
-1.4878017902374268 7.0 0.40036702156066895
-1.1762385368347168 -2.128387451171875 -0.8704309463500977
8.0 0.40036702156066895 -1.0200042724609375
-1.5856380462646484 -0.2511126399040222 4.0
0.40036702156066895 -1.2145395278930664 -2.7908153533935547
-1.4652061462402344 7.0 0.40036702156066895
-1.165048599243164 -2.654356002807617 -0.859433650970459
8.0 0.40036702156066895 -0.8211507797241211
-1.4581432342529297 -0.2513570189476013 4.0
0.40036702156066895 -1.1070613861083984 -2.9970035552978516
-0.8527054786682129 18.0 0.40036702156066895
-0.7118916511535645 -1.665792465209961 -0.25184959173202515
4.0 0.40036702156066895 -1.0353312492370605
-2.8083419799804688 0.35198503732681274 3.0
0.40036702156066895 -0.989842414855957 -3.1043930053710938
-1.4548914432525635 27.0 0.40036702156066895
-0.9703483581542969 -3.0594558715820312 -0.8525553941726685
21.0 0.40036702156066895 -0.6246480941772461
-1.9242935180664062 -0.25236135721206665 6.0
0.40036702156066895 -0.8512687683105469 -2.730569839477539
0.3546314239501953 10.0 0.40036702156066895
-0.8374152183532715 -2.705282211303711 0.9687674641609192
6.0 0.40036702156066895 -0.8518471717834473
-3.145132064819336 -1.4552254676818848 25.0
0.40036702156066895 -0.8248872756958008 -3.0919933319091797
-0.8531272411346436 7.0 0.40036702156066895
-0.4386463165283203 -1.8458824157714844 -0.2526417374610901
4.0 0.40036702156066895 -0.700777530670166
-2.737590789794922 0.3551505208015442 10.0
0.40036702156066895 -0.7014608383178711 -2.7768592834472656
0.9669994711875916 9.0 0.40036702156066895
-0.702549934387207 -3.179708480834961 -1.4560420513153076
22.0 0.40036702156066895 -0.6734986305236816
-3.1209774017333984 -0.8538463711738586 2.0
0.40036702156066895 1.2877473831176758 3.238008499145508
-0.2496403157711029 3.0 0.40036702156066895
-0.5414028167724609 -2.748218536376953 0.35564565658569336
10.0 0.40036702156066895 -0.5517148971557617
-2.818033218383789 0.9668257832527161 9.0
0.40036702156066895 -0.5547423362731934 -3.2043685913085938
-1.4573078155517578 22.0 0.40036702156066895
-0.5217437744140625 -3.134326934814453 -0.8549166321754456
2.0 0.40036702156066895 -0.38147497177124023
-2.7432498931884766 0.35653156042099 10.0
0.40036702156066895 -0.40056324005126953 -2.839710235595703
0.9676066040992737 9.0 0.40036702156066895
-0.4020671844482422 -3.214609146118164 -1.4593095779418945
25.0 0.40036702156066895 -0.33757448196411133
-3.0476036071777344 -0.8583847284317017 2.0
0.40036702156066895 0.562830924987793 -0.2545146942138672
-0.2526460886001587 4.0 0.40036702156066895
-0.22732257843017578 -2.7582950592041016 0.35694003105163574
10.0 0.40036702156066895 -0.24877643585205078
-2.860342025756836 0.9684813618659973 9.0
0.40036702156066895 -0.2505226135253906 -3.2296409606933594
-1.4611291885375977 25.0 0.40036702156066895
-0.06190204620361328 -2.740072250366211 0.3582041263580322
10.0 0.40036702156066895 -0.08643913269042969
-2.8496780395507812 0.9709585309028625 9.0
0.40036702156066895 -0.09007453918457031 -3.2190589904785156
-1.464237928390503 20.0 0.40036702156066895
1.319528579711914 0.9633235931396484 -0.2526293992996216
5.0 0.40036702156066895 1.3159284591674805
0.9133491516113281 0.450647234916687 5.0
0.40036702156066895 0.07251644134521484 -2.8513851165771484
0.972868025302887 6.0 0.40036702156066895
0.06819915771484375 -3.2170658111572266 -1.466979742050171
17.0 0.40036702156066895 0.23940086364746094
-2.8314590454101562 0.9759078621864319 6.0
0.40036702156066895 0.7144088745117188 -3.191038131713867
-1.4793479442596436 21.0 0.40036702156066895
0.8924226760864258 -3.158334732055664 -1.4839541912078857
21.0 0.40036702156066895 1.074631690979004
-3.1046314239501953 -1.4895658493041992 18.0
0.40036702156066895 1.2386493682861328 -2.732473373413086
-0.25719887018203735 4.0 0.40036702156066895
1.1794891357421875 -2.9062976837158203 0.3613603115081787
3.0 0.40036702156066895 1.3729667663574219
-2.8134822845458984 -0.25757473707199097 2.0
0.40036702156066895 -1.2258033752441406 5.2879180908203125
-1.0799894332885742 16.0 0.4506959915161133
-1.1814117431640625 5.455842971801758 -0.2865370213985443
7.0 0.4506959915161133 -1.2166261672973633
4.399015426635742 -1.060241937637329 5.0
0.4506959915161133 -1.1672968864440918 4.586034774780273
-0.28694605827331543 6.0 0.4506959915161133
-1.2018671035766602 3.581340789794922 -1.0421552658081055
4.0 0.4506959915161133 -1.20648193359375
2.7198333740234375 -1.0229519605636597 9.0
0.4506959915161133 -1.0361518859863281 0.39533042907714844
-0.9729134440422058 7.0 0.4506959915161133
-1.2038168907165527 -0.8795509338378906 -1.6030097007751465
6.0 0.4506959915161133 -1.1630878448486328
-0.7710208892822266 -0.9459890723228455 6.0
0.4506959915161133 -1.1996502876281738 -1.4977951049804688
-1.5754191875457764 6.0 0.4506959915161133
-1.1571168899536133 -1.384084701538086 -0.932518720626831
9.0 0.4506959915161133 -1.185288906097412
-2.070150375366211 -1.550081491470337 8.0
0.4506959915161133 -1.1454472541809082 -1.9500446319580078
-0.9201623797416687 9.0 0.4506959915161133
-0.9023199081420898 -1.1004409790039062 -0.29018691182136536
2.0 0.4506959915161133 -1.1767892837524414
-2.604595184326172 -1.5263826847076416 13.0
0.4506959915161133 -1.1384472846984863 -2.509439468383789
-0.9079263210296631 11.0 0.4506959915161133
-1.114820957183838 -2.4500770568847656 -0.29001519083976746
3.0 0.4506959915161133 -1.042224407196045
-2.6897411346435547 -1.5247297286987305 10.0
0.4506959915161133 -0.6451940536499023 -1.3768329620361328
-0.29117023944854736 8.0 0.4506959915161133
-0.9433879852294922 -2.4511051177978516 0.32987648248672485
3.0 0.4506959915161133 -0.5641474723815918
-1.6724529266357422 -0.2915644645690918 6.0
0.4506959915161133 -0.7646956443786621 -2.404439926147461
0.3314715027809143 11.0 0.4506959915161133
-0.7483716011047363 -2.389984130859375 0.9602814316749573
6.0 0.4506959915161133 -0.7533669471740723
-2.8040771484375 -1.5243566036224365 26.0
0.4506959915161133 -0.7316102981567383 -2.770963668823242
-0.9061599969863892 22.0 0.4506959915161133
-0.38383054733276367 -1.6229782104492188 -0.29215431213378906
8.0 0.4506959915161133 -0.6027951240539551
-2.4017276763916016 0.33203941583633423 11.0
0.4506959915161133 -0.6108951568603516 -2.4697513580322266
0.9580138325691223 9.0 0.4506959915161133
-0.6028223037719727 -2.8321666717529297 -1.5256221294403076
26.0 0.4506959915161133 -0.5814409255981445
-2.8010692596435547 -0.9070046544075012 11.0
